# .PCD v0.7 - Point Cloud Data file format
VERSION 0.7
FIELDS x y z
SIZE 4 4 4
TYPE F F F
COUNT 1 1 1
WIDTH 1471
HEIGHT 1
VIEWPOINT 0 0 0 1 0 0 0
POINTS 1471
DATA ascii
-1.0300494 -1.8744495 0.60657275
-1.0063682 -1.8313501 0.38366497
-0.99806571 -1.8169824 0.17730074
-0.038708441 -0.039990205 4.8640885
-0.42177734 -0.7326014 5.3743367
-0.5803439 -1.0187235 5.6601434
-1.1047995 -1.9610021 7.2427015
-1.4575908 -2.6018717 7.0855041
-1.5309427 -2.7417204 5.8220181
-1.3751582 -2.468781 4.2230859
-1.2896196 -2.3180575 3.2525358
-0.16182692 -0.25286373 5.0310202
-0.28535923 -0.48374462 5.1950331
-0.7387321 -1.3002346 5.7951121
-1.5625882 -2.771142 8.7054968
-1.6109883 -2.8697684 6.8685966
-1.4454085 -2.5821724 4.9105096
-1.324293 -2.3696704 3.6693318
-1.2509807 -2.2421408 2.8616688
-1.2221699 -2.2058566 2.557966
-1.1699315 -2.1141663 2.0306978
-1.13245 -2.0472693 1.6185251
-1.0935435 -1.9785496 1.2699015
-1.0719979 -1.9403572 0.98396063
-1.0437332 -1.8899665 0.72455466
-1.0157427 -1.8407902 0.49063358
-0.99596626 -1.8049451 0.27801949
-1.1935793 -2.1471684 2.2691472
-1.1533325 -2.0764604 1.8130757
-1.1098989 -1.9990767 1.4292552
-1.079018 -1.9458416 1.1160215
-1.0556513 -1.9044774 0.84699714
-1.0271635 -1.8538363 0.60188347
-1.0055544 -1.8148313 0.3815929
-0.99714047 -1.8003763 0.17669614
-0.038847797 -0.039854843 4.8640885
-0.42394176 -0.73045278 5.3693972
-0.58693987 -1.0219886 5.6895146
-1.0865693 -1.9130049 7.0804543
-1.4647425 -2.5933659 7.0762997
-1.5217041 -2.7029686 5.7517929
-1.3713655 -2.4418838 4.1858892
-1.2867265 -2.2939737 3.2256734
-0.16255134 -0.25205526 5.0260286
-0.28704607 -0.48274556 5.1950331
-0.74326622 -1.2976478 5.7951121
-1.5415471 -2.7116644 8.5365562
-1.6092004 -2.8432877 6.8190837
-1.4403124 -2.5521271 4.863584
-1.3192437 -2.3414063 3.6334214
-1.2488265 -2.2200322 2.839618
-1.2176874 -2.1797833 2.5334342
-1.1678215 -2.0930746 2.0150054
-1.1273688 -2.0213928 1.6020764
-1.0918177 -1.9592422 1.2606263
-1.0697403 -1.9204035 0.9764685
-1.0409893 -1.8695472 0.71891451
-1.0149974 -1.8243556 0.48783568
-0.99499708 -1.7884022 0.27667826
-1.1901139 -2.1234467 2.2491941
-1.1487236 -2.0512621 1.7954167
-1.1063417 -1.9763825 1.4165894
-1.0769442 -1.9262178 1.1076293
-1.0553814 -1.8884146 0.84206659
-1.0265166 -1.8375094 0.5983665
-1.0022225 -1.7940173 0.37883019
-0.99367571 -1.7794371 0.17589001
-0.038953345 -0.039690837 4.8590884
-0.42648894 -0.72896844 5.3693972
-0.58999336 -1.0190525 5.6846194
-1.0806292 -1.8871801 6.9993305
-1.4718527 -2.5848417 7.0670943
-1.508667 -2.658066 5.6684003
-1.3660156 -2.412595 4.1445599
-1.2821034 -2.2671483 3.1949735
-0.1634302 -0.2514863 5.0260286
-0.28872943 -0.48174065 5.1950331
-0.74716264 -1.293957 5.7902722
-1.5407054 -2.6883006 8.4802427
-1.6094053 -2.820636 6.7785726
-1.4337347 -2.5198829 4.8123932
-1.3140132 -2.3132069 3.5975113
-1.2465334 -2.1979661 2.8175669
-1.2130377 -2.1537685 2.5089023
-1.1655787 -2.0720234 1.9993131
-1.1241704 -1.9992216 1.588369
-1.0899706 -1.9399716 1.2513511
-1.0673568 -1.9004897 0.96897638
-1.040464 -1.8533535 0.71468443
-1.0141497 -1.8079488 0.48503786
-0.99392456 -1.771888 0.27533701
-1.1864976 -2.0997756 2.2292411
-1.1459404 -2.0296416 1.780701
-1.1026399 -1.953738 1.4039235
-1.0769753 -1.9105856 1.1013352
-1.0550123 -1.8723769 0.83713609
-1.0257683 -1.8212098 0.59484959
-1.0011879 -1.7775636 0.37675813
-0.99252808 -1.7628976 0.17528543
-0.039091654 -0.039554622 4.8590884
-0.42903093 -0.72747529 5.3693972
-0.59354693 -1.0169868 5.6846194
-1.0834785 -1.876933 6.975471
-1.4789211 -2.5762997 7.0578895
-1.5107991 -2.6403115 5.642066
-1.3632679 -2.3882608 4.111496
-1.2788965 -2.2431679 3.1681111
-0.16414806 -0.25067326 5.0210371
-0.29040927 -0.48072985 5.1950331
-0.75167483 -1.2913411 5.7902722
-1.5267695 -2.6425638 8.3535385
-1.6094717 -2.7980182 6.7380614
-1.4282473 -2.4899781 4.7654681
-1.3086025 -2.285073 3.5616009
-1.2441015 -2.1759434 2.795516
-1.2099825 -2.1309142 2.487875
-1.1651235 -2.0543993 1.9867593
-1.1208311 -1.9770976 1.5746617
-1.0880023 -1.9207375 1.2420759
-1.0671314 -1.8846499 0.96335721
-1.0374753 -1.8330113 0.70904434
-1.0131999 -1.7915702 0.48223996
-0.99274915 -1.7554036 0.27399579
-1.1827304 -2.0761554 2.2092881
-1.1430202 -2.008065 1.7659851
-1.1009254 -1.9348904 1.3937908
-1.0746683 -1.8910315 1.092943
-1.0522119 -1.8522594 0.83056211
-1.0249189 -1.804938 0.59133261
-0.99760556 -1.7568331 0.37399539
-0.9912771 -1.7463877 0.17468084
-0.03922949 -0.039417926 4.8590884
-0.43156767 -0.72597325 5.3693972
-0.59451091 -1.0105213 5.6601434
-1.0870202 -1.867979 6.9563828
-1.4849691 -2.5660489 7.0440817
-1.5044483 -2.6080527 5.5850077
-1.3575602 -2.359098 4.0701666
-1.2739403 -2.216459 3.1374109
-0.16502209 -0.25009876 5.0210371
-0.29208553 -0.4797132 5.1950331
-0.75554168 -1.2876253 5.7854328
-1.5168759 -2.6044128 8.2502975
-1.6148604 -2.7848501 6.7200565
-1.4225688 -2.4601429 4.7185426
-1.3045179 -2.2596147 3.5296807
-1.2415313 -2.1539645 2.7734649
-1.2067827 -2.1081078 2.4668479
-1.1626275 -2.0334249 1.9710671
-1.1194261 -1.9586518 1.5636958
-1.08811 -1.905388 1.2351196
-1.0645103 -1.8648089 0.95586509
-1.0367351 -1.8168793 0.7048142
-1.0097152 -1.7709531 0.47850949
-0.99393743 -1.7432752 0.27310163
-1.1806726 -2.0558255 2.1926606
-1.1399635 -1.9865342 1.7512692
-1.0990928 -1.9160783 1.3836579
-1.0722377 -1.8715167 1.0845507
-1.0516307 -1.8362819 0.8256315
-1.0239685 -1.7886946 0.58781564
-0.99635118 -1.7404473 0.37192339
-0.98744172 -1.7255721 0.17387471
-0.039366845 -0.03928075 4.8590884
-0.43409914 -0.72446239 5.3693972
-0.59595656 -1.0049372 5.6405625
-1.0958 -1.8680357 6.9706988
-1.4909638 -2.5557876 7.0302739
-1.5002989 -2.5800114 5.5367279
-1.3530777 -2.3324382 4.03297
-1.2688137 -2.1898122 3.1067109
-0.16589408 -0.24952121 5.0210371
-0.29347908 -0.47823656 5.1900616
-0.75939167 -1.2838985 5.7805939
-1.5058612 -2.5648756 8.1423645
-1.6091905 -2.7528851 6.6570401
-1.4180131 -2.4326308 4.6758833
-1.3002716 -2.2342131 3.4977605
-1.2388229 -2.1320305 2.7514141
-1.2034385 -2.0853498 2.4458206
-1.1599993 -2.0124931 1.9553747
-1.1179061 -1.9402401 1.55273
-1.0859135 -1.8862219 1.2258444
-1.0617638 -1.8450094 0.94837296
-1.0358948 -1.8007749 0.70058405
-1.0085468 -1.7546411 0.47571161
-0.99257141 -1.7268425 0.27176037
-1.1784874 -2.0355353 2.176033
-1.1367707 -1.9650494 1.7365535
-1.0993005 -1.901035 1.3760586
-1.0696843 -1.8520421 1.0761585
-1.0485897 -1.8162417 0.81905752
-1.0229173 -1.7724798 0.58429867
-0.99499458 -1.7240916 0.36985135
-0.98596972 -1.7091326 0.17327012
-0.03950372 -0.039143093 4.8590884
-0.43662536 -0.72294265 5.3693972
-0.59737039 -0.99935526 5.6209817
-1.1015542 -1.8629143 6.9659266
-1.4978954 -2.5471995 7.0210686
-1.4935496 -2.547899 5.47967
-1.3484257 -2.3058388 3.9957736
-1.2651333 -2.1659961 3.0798483
-0.16692556 -0.24917994 5.0260286
-0.29514667 -0.47720921 5.1900616
-0.76322484 -1.2801602 5.7757545
-1.492831 -2.5224771 8.0250454
-1.6044223 -2.7228696 6.5985241
-1.4119613 -2.4029324 4.6289582
-1.295864 -2.208869 3.4658406
-1.2342631 -2.1072161 2.7256877
-1.2017436 -2.0657237 2.4282978
-1.1591949 -1.9949703 1.9428209
-1.1162711 -1.9218632 1.541764
-1.0835965 -1.8670945 1.2165691
-1.0612185 -1.8292623 0.94275385
-1.0349548 -1.7846986 0.69635403
-1.0048144 -1.7341089 0.47198114
-0.99110287 -1.7104406 0.27041915
-1.1761752 -2.015286 2.1594057
-1.135478 -1.9471029 1.7247809
-1.0972457 -1.8822893 1.3659258
-1.0692916 -1.8365307 1.0698644
-1.0477973 -1.8003267 0.81412703
-1.0217654 -1.7562943 0.58078176
-0.99353594 -1.7077667 0.36777928
-0.98439509 -1.6927241 0.17266552
-0.039640114 -0.039004963 4.8590884
-0.43874198 -0.72075063 5.3644586
-0.59927827 -0.9946478 5.6062956
-1.1072859 -1.8577757 6.9611545
-1.5047852 -2.5385942 7.0118642
-1.4865948 -2.5158653 5.4226117
-1.3450339 -2.2817247 3.9627099
-1.2629285 -2.1449947 3.0568233
-0.16779433 -0.24859574 5.0260286
-0.29681063 -0.47617605 5.1900616
-0.76768881 -1.2774882 5.7757545
-1.4839443 -2.4876115 7.9311891
-1.5972408 -2.6891775 6.5310059
-1.4070489 -2.3755498 4.5862985
-1.2928294 -2.1861765 3.4379103
-1.2329924 -2.0882986 2.7073119
-1.1999264 -2.0461347 2.4107749
-1.1563151 -1.9741189 1.9271286
-1.1145216 -1.9035213 1.5307982
-1.0833966 -1.8518304 1.2096127
-1.058236 -1.8095393 0.93526173
-1.0339154 -1.768651 0.69212389
-1.0034287 -1.7178659 0.4691833
-0.98953205 -1.6940702 0.2690779
-1.1737359 -1.9950771 2.1427782
-1.134074 -1.9291893 1.7130083
-1.0950732 -1.8635812 1.3557931
-1.0665066 -1.8171306 1.0614722
-1.0445167 -1.7803664 0.80755287
-1.0205129 -1.7401385 0.57726479
-0.99197555 -1.6914732 0.36570725
-0.98271787 -1.6763479 0.17206094
-0.039776027 -0.038866356 4.8590884
-0.44084868 -0.71855259 5.359519
-0.60168928 -0.99080956 5.5965052
-1.1145327 -1.8551787 6.9659266
-1.5106308 -2.5282948 6.9980564
-1.4794346 -2.4839115 5.3655539
-1.3400526 -2.2552435 3.9255133
-1.2589566 -2.1212788 3.0299606
-0.16882421 -0.24824667 5.0310202
-0.29818711 -0.47468594 5.1850901
-0.77149212 -1.2737256 5.7709146
-1.4748328 -2.4528389 7.8373346
-1.5909622 -2.6574371 6.467989
-1.4019626 -2.3482311 4.5436392
-1.2896522 -2.1635325 3.4099801
-1.2281374 -2.0635896 2.6815858
-1.1979874 -2.0265844 2.3932524
-1.153304 -1.9533125 1.9114364
-1.112658 -1.8852155 1.5198324
-1.0808527 -1.8327745 1.2003375
-1.0574832 -1.7938538 0.92964268
-1.0327766 -1.7526327 0.68789381
-1.0019418 -1.701654 0.46638545
-0.98785907 -1.6777318 0.26773667
-1.1730746 -1.9781221 2.1294761
-1.1325589 -1.9113098 1.7012357
-1.0949808 -1.8486207 1.3481935
-1.063599 -1.7977723 1.05308
-1.0435138 -1.7645159 0.80262244
-1.0166869 -1.7198291 0.57257551
-0.99031377 -1.6752117 0.36363521
-0.98093861 -1.660004 0.17145634
-0.039911453 -0.038727276 4.8590884
-0.44335419 -0.71700937 5.359519
-0.60461247 -0.98783487 5.59161
-1.121775 -1.8525537 6.9706988
-1.5043278 -2.4979031 6.9290185
-1.4720699 -2.452039 5.308496
-1.336349 -2.2312391 3.8924499
-1.2564803 -2.100368 3.0069356
-0.16968973 -0.24765585 5.0310202
-0.29984227 -0.47364217 5.1850901
-0.77593356 -1.2710249 5.7709146
-1.4654963 -2.4181602 7.7434788
-1.5912305 -2.6369567 6.4319792
-1.396703 -2.3209774 4.5009799
-1.287885 -2.1435206 3.38604
-1.226613 -2.044754 2.6632099
-1.1959264 -2.0070722 2.3757296
-1.1501617 -1.9325511 1.8957441
-1.1085422 -1.8633523 1.5061251
-1.0781894 -1.8137596 1.1910623
-1.0542655 -1.7742099 0.92215055
-1.0315387 -1.736644 0.68366367
-1.0003539 -1.6854733 0.46358755
-0.98608422 -1.6614258 0.26639542
-1.1703935 -1.9579911 2.1128485
-1.1288601 -1.889994 1.6865199
-1.0925874 -1.8299818 1.3380609
-1.0605695 -1.7784566 1.0446877
-1.0399948 -1.744638 0.7960484
-1.0152196 -1.7037429 0.56905854
-0.99108541 -1.6632364 0.36225384
-0.98161387 -1.6479855 0.17105328
-0.040046394 -0.038587723 4.8590884
-0.44544315 -0.71479815 5.3545794
-0.60752219 -0.98485178 5.5867147
-1.1282347 -1.8486269 6.9706988
-1.5059414 -2.4809465 6.896801
-1.4645008 -2.4202483 5.2514381
-1.3324944 -2.2072883 3.8593862
-1.2555288 -2.0822453 2.9877484
-0.17055316 -0.24706203 5.0310202
-0.30149373 -0.47259265 5.1850901
-0.78036553 -1.2683088 5.7709146
-1.456836 -2.3850498 7.6543159
-1.5732746 -2.5867484 6.3239503
-1.3926229 -2.2960191 4.4625864
-1.2859936 -2.1235471 3.3620996
-1.2232182 -2.0230536 2.6411591
-1.1919078 -1.9845421 2.3547022
-1.1468889 -1.9118358 1.8800519
-1.1064377 -1.8451271 1.4951591
-1.0776833 -1.7985851 1.1841059
-1.0533057 -1.7585876 0.91653144
-1.0302018 -1.7206855 0.67943364
-0.99866551 -1.6693249 0.46078971
-0.98676431 -1.6494265 0.26550126
-1.1695132 -1.9411013 2.0995464
-1.1271114 -1.8721907 1.6747472
-1.0900774 -1.8113828 1.3279281
-1.0574183 -1.7591842 1.0362955
-1.0387821 -1.7288539 0.79111785
-1.0111499 -1.6835216 0.56436926
-0.98923582 -1.6470311 0.36018181
-0.97964561 -1.6316992 0.17044869
-0.040146641 -0.038420599 4.8540883
-0.44793552 -0.71323889 5.3545794
-0.61095625 -0.98272514 5.5867147
-1.7111303 -2.7816825 10.487651
-1.5003177 -2.4523439 6.8323655
-1.4567276 -2.3885405 5.1943798
-1.3270261 -2.1809881 3.8221896
-1.2528013 -2.0614157 2.9647233
-0.17141454 -0.24646518 5.0310202
-0.30314156 -0.47153732 5.1850901
-0.78412539 -1.2645087 5.7660751
-1.4479625 -2.35203 7.5651541
-1.5629524 -2.5496898 6.2474294
-1.3883859 -2.2711177 4.4241929
-1.2824088 -2.1010418 3.3341696
-1.2196867 -2.0014021 2.619108
-1.1895934 -1.9651157 2.3371794
-1.1454996 -1.8944978 1.867498
-1.1020569 -1.823361 1.4814519
-1.0747945 -1.779645 1.1748308
-1.0522503 -1.7429942 0.91091239
-1.0287662 -1.7047575 0.6752035
-0.99687666 -1.6532089 0.45799184
-0.98480117 -1.6331781 0.26416004
-1.1685294 -1.9242418 2.0862446
-1.125252 -1.8544227 1.6629746
-1.0896865 -1.7965093 1.3203285
-1.0564973 -1.7438374 1.0300014
-1.037472 -1.7131 0.78618735
-1.0094688 -1.6675078 0.56085235
-0.98728544 -1.6308593 0.35810977
-0.98016232 -1.6197211 0.17004563
-0.040280513 -0.03828023 4.8540883
-0.45042247 -0.71167094 5.3545794
-0.61492366 -0.98144931 5.59161
-1.6791406 -2.7084548 10.234735
-1.4975891 -2.4288001 6.7817378
-1.4487513 -2.3569169 5.1373219
-1.3228618 -2.1571519 3.7891262
-1.2499437 -2.0406306 2.9416981
-0.17210737 -0.24562947 5.0260286
-0.3047857 -0.4704763 5.1850901
-0.78853452 -1.2617639 5.7660751
-1.4388763 -2.3191013 7.4759912
-1.5478138 -2.5053272 6.152904
-1.383992 -2.246274 4.3857994
-1.2802615 -2.0811534 3.3102293
-1.2160193 -1.9798001 2.5970571
-1.1890156 -1.948774 2.3231614
-1.1419775 -1.8738692 1.8518057
-1.0997131 -1.8052193 1.470486
-1.0740901 -1.7645307 1.1678745
-1.0510983 -1.7274293 0.90529323
-1.0272319 -1.6888604 0.67097336
-0.99753886 -1.6413234 0.4561266
-0.98273677 -1.6169636 0.26281881
-1.1674422 -1.9074126 2.0729425
-1.1211737 -1.8332424 1.6482587
-1.0869567 -1.7779831 1.3101958
-1.0554821 -1.7285186 1.0237073
-1.0360646 -1.6973763 0.78125679
-1.007688 -1.6515261 0.55733538
-0.98781347 -1.6189486 0.35672843
-0.98060727 -1.6077595 0.16964257
-0.04041389 -0.038139392 4.8540883
-0.45248583 -0.70943934 5.3496404
-0.61780196 -0.97843587 5.5867147
-1.659317 -2.6557393 10.058172
-1.4936832 -2.403646 6.7265077
-1.4405723 -2.3253784 5.0802636
-1.3185474 -2.1333716 3.7560625
-1.2469566 -2.019891 2.918673
-0.17296374 -0.2450272 5.0260286
-0.30642611 -0.46940956 5.1850901
-0.79293412 -1.2590036 5.7660751
-1.431408 -2.2891912 7.396214
-1.5427412 -2.4777336 6.0988894
-1.3794416 -2.221489 4.3474059
-1.2779914 -2.0613062 3.2862895
-1.2140003 -1.9611307 2.5786812
-1.1864703 -1.9294227 2.3056388
-1.1403627 -1.8566052 1.8392519
-1.0950682 -1.7835526 1.4567786
-1.0709766 -1.7456673 1.1585991
-1.0498508 -1.7118939 0.89967412
-1.0230922 -1.6689055 0.66533327
-0.99556428 -1.6252648 0.45332876
-0.98317242 -1.6050302 0.26192465
-1.166252 -1.8906147 2.0596406
-1.1190823 -1.8155544 1.6364861
-1.084111 -1.7594979 1.3000631
-1.054373 -1.7132283 1.0174131
-1.0345603 -1.6816834 0.7763263
-1.0058084 -1.6355774 0.55381846
-0.98567641 -1.6028357 0.3546564
-0.97836435 -1.5915583 0.16903797
-0.040546775 -0.037998088 4.8540883
-0.45495951 -0.70785558 5.3496404
-0.62121361 -0.97627348 5.5867147
-1.3854051 -2.2002611 8.3593464
-1.4896203 -2.3785489 6.671277
-1.4296539 -2.2898631 5.0144277
-1.3125954 -2.1072593 3.7188659
-1.2438399 -1.9991972 2.895648
-0.17381799 -0.24442196 5.0260286
-0.30776948 -0.4678919 5.1801181
-0.79665035 -1.2551671 5.7612362
-1.4228288 -2.2579021 7.3117447
-1.5351806 -2.4465182 6.0358725
-1.3747356 -2.1967638 4.3090129
-1.2755982 -2.0415006 3.2623494
-1.2118661 -1.9425 2.5603054
-1.185683 -1.9131445 2.2916205
-1.1386416 -1.8393753 1.8266981
-1.0946864 -1.7690523 1.4485543
-1.0677447 -1.7268474 1.1493239
-1.0485078 -1.6963885 0.89405507
-1.0213473 -1.6530813 0.66110319
-0.99607038 -1.6134201 0.45146352
-0.98092067 -1.5888762 0.2605834
-1.1649587 -1.8738488 2.0463386
-1.1147481 -1.79447 1.6217704
-1.0834237 -1.7447166 1.2924637
-1.0531701 -1.6979668 1.0111189
-1.0329591 -1.6660218 0.77139574
-1.0038296 -1.6196623 0.55030149
-0.98604774 -1.5909671 0.35327503
-0.97865182 -1.5796398 0.16863491
-0.040679164 -0.037856322 4.8540883
-0.45742762 -0.70626312 5.3496404
-0.62626708 -0.97667027 5.6014009
-1.3994756 -2.2054942 8.397522
-1.4864433 -2.3551614 6.6206493
-1.4299852 -2.2726963 4.9880934
-1.3079735 -2.0835984 3.6858025
-1.2405941 -1.9785502 2.8726232
-0.17467012 -0.24381372 5.0260286
-0.30940083 -0.46681473 5.1801181
-0.80102694 -1.2523786 5.7612362
-1.4149737 -2.2281578 7.2319674
-1.5204397 -2.4043469 5.9458485
-1.3698738 -2.1720982 4.2706194
-1.2730824 -2.0217364 3.238409
-1.2078121 -1.9210378 2.5382543
-1.1829073 -1.8938705 2.2740977
-1.136814 -1.8221804 1.8141443
-1.0920039 -1.7510284 1.4375885
-1.0667378 -1.7118313 1.1423676
-1.0470694 -1.6809134 0.8884359
-1.0169687 -1.6332176 0.65546304
-0.99391097 -1.5974209 0.44866565
-0.98119915 -1.5769857 0.25968924
-1.1635628 -1.857115 2.0330365
-1.1124257 -1.7768642 1.6099977
-1.0826465 -1.7299615 1.2848641
-1.0542791 -1.6865833 1.0069228
-1.0312611 -1.6503921 0.76646519
-1.0017521 -1.6037809 0.54678452
-0.98634839 -1.5791153 0.35189366
-0.97622186 -1.5635008 0.16803031
-0.040845729 -0.037740588 4.8590884
-0.45946527 -0.70401162 5.3447013
-0.6390695 -0.98901486 5.6846194
-1.4127952 -2.2093985 8.4309254
-1.4799756 -2.3268807 6.5562143
-1.4250838 -2.2474649 4.9442024
-1.3032025 -2.0599957 3.6527388
-1.2372195 -1.9579501 2.8495982
-0.17552012 -0.24320254 5.0260286
-0.31102845 -0.46573186 5.1801181
-0.80471247 -1.2485183 5.7563968
-1.4078587 -2.1999493 7.1568832
-1.5218031 -2.3880098 5.9188409
-1.3634574 -2.1452928 4.2279601
-1.2704442 -2.0020151 3.214469
-1.2054379 -1.9024918 2.5198786
-1.1800119 -1.8746396 2.2565751
-1.1348803 -1.8050205 1.8015904
-1.0914342 -1.7365853 1.429364
-1.0632827 -1.6930918 1.1330924
-1.0455359 -1.6654694 0.88281685
-1.0150138 -1.617468 0.65123296
-0.99165201 -1.5814567 0.44586781
-0.98140663 -1.5651129 0.25879508
-1.1600707 -1.8372566 2.0164089
-1.1121505 -1.7627147 1.6011682
-1.0794799 -1.7115872 1.2747314
-1.0529026 -1.6713727 1.0006286
-1.0294667 -1.6347946 0.76153469
-0.99957609 -1.5879339 0.54326761
-0.98394012 -1.56309 0.3498216
-0.97635216 -1.5516267 0.16762725
-0.040977221 -0.037597783 4.8590884
-0.46191993 -0.70240355 5.3447013
-0.65363282 -1.0038414 5.7825241
-1.4261591 -2.2132366 8.4643297
-1.4796546 -2.3085425 6.5193939
-1.4213133 -2.2243137 4.9047008
-1.2997957 -2.0388243 3.6238084
-1.2337162 -1.9373982 2.8265731
-0.176368 -0.24258837 5.0260286
-0.31265226 -0.46464336 5.1801181
-0.80838102 -1.2446479 5.7515569
-1.4005643 -2.171818 7.081799
-1.5195421 -2.3661978 5.8783298
-1.3582776 -2.1207547 4.1895666
-1.2676841 -1.9823371 3.1905289
-1.2011243 -1.8811285 2.4978275
-1.1769966 -1.8554521 2.2390523
-1.1328409 -1.7878966 1.7890366
-1.090777 -1.7221675 1.4211395
-1.0620791 -1.6781405 1.1261359
-1.0439074 -1.6500565 0.87719774
-1.0129616 -1.601752 0.64700282
-0.99191803 -1.5696802 0.44400257
-0.98420364 -1.5574677 0.25834802
-1.1584588 -1.8205957 2.0031071
-1.1096215 -1.7451782 1.5893955
-1.0785108 -1.6968944 1.2671319
-1.0514327 -1.6561925 0.99433452
-1.0275761 -1.6192298 0.75660414
-0.99990547 -1.5762262 0.54092294
-0.9840849 -1.5512825 0.34844026
-0.9764114 -1.539771 0.16722418
-0.041143063 -0.037480772 4.8640885
-0.46436897 -0.70078683 5.3447013
-0.66942483 -1.0202806 5.8902192
-0.99974173 -1.5397365 5.9160905
-1.4834638 -2.2967992 6.5009837
-1.4173988 -2.2012162 4.8651991
-1.2962571 -2.0177023 3.5948777
-1.2300849 -1.9168947 2.8035481
-0.17721371 -0.24197125 5.0260286
-0.31427225 -0.46354917 5.1801181
-0.81203222 -1.2407666 5.7467175
-1.393091 -2.143765 7.0067148
-1.5171474 -2.3444309 5.8378186
-1.351529 -2.0940883 4.1469073
-1.2648022 -1.962703 3.1665885
-1.1966764 -1.8598188 2.4757767
-1.1757826 -1.8393133 2.225034
-1.1327906 -1.7740896 1.7796211
-1.0922823 -1.7113001 1.4156566
-1.0607842 -1.6632186 1.1191796
-1.0421841 -1.6346755 0.87157869
-1.010812 -1.5860703 0.64277273
-0.98947525 -1.5537779 0.4412047
-0.98428416 -1.5456216 0.25745386
-1.1547294 -1.8008256 1.9864796
-1.106984 -1.7276813 1.5776229
-1.0774523 -1.6822293 1.2595323
-1.0474241 -1.63722 0.9859423
-1.0281337 -1.6076766 0.75331712
-0.99754727 -1.5604404 0.53740603
-0.98149192 -1.535321 0.34636822
-0.97370964 -1.5237238 0.1666196
-0.041273646 -0.037336923 4.8640885
-0.46638066 -0.69851553 5.3397622
-0.67635232 -1.0230333 5.9195905
-1.004293 -1.5349883 5.9113183
-1.4808145 -2.275233 6.4549584
-1.4120368 -2.1761646 4.8213081
-1.2941164 -1.9989922 3.5700798
-1.2280658 -1.8991319 2.7843604
-0.17805725 -0.2413512 5.0260286
-0.31558743 -0.4620094 5.1751466
-0.81566626 -1.2368754 5.7418785
-1.385439 -2.1157906 6.9316306
-1.511052 -2.3172393 5.7838044
-1.3460329 -2.0696812 4.1085138
-1.2617989 -1.9431134 3.1426485
-1.19025 -1.8357185 2.4500504
-1.1725391 -1.8202077 2.2075114
-1.1326576 -1.7603049 1.7702057
-1.0914632 -1.6969268 1.4074323
-1.0617933 -1.6520526 1.114542
-1.0378604 -1.6154265 0.86408657
-1.0085655 -1.5704232 0.63854265
-0.98693377 -1.537912 0.43840683
-0.98429418 -1.5337942 0.2565597
-1.1529027 -1.78424 1.9731777
-1.1064302 -1.7136195 1.5687933
-1.073967 -1.6639706 1.2493995
-1.0457549 -1.6221102 0.97964811
-1.0260652 -1.5921702 0.74838662
-0.99772352 -1.5487765 0.53506136
-0.98148167 -1.5235597 0.34498686
-0.97361284 -1.511915 0.16621654
-0.041438758 -0.037218634 4.8690882
-0.46881607 -0.69688332 5.3397622
-1.0129318 -1.536458 5.9304061
-1.4887475 -2.2700503 6.4549584
-1.407828 -2.1531818 4.7818065
-1.2918607 -1.9803216 3.5452821
-1.224188 -1.878721 2.7613354
-0.17872566 -0.24049702 5.0210371
-0.31719822 -0.46090499 5.1751466
-0.81928301 -1.2329738 5.7370391
-1.3795096 -2.0907769 6.8659315
-1.5107628 -2.2992156 5.752296
-1.3418125 -2.0475197 4.0743866
-1.2570243 -1.9210473 3.1147182
-1.1836703 -1.8116864 2.4243243
-1.1691767 -1.8011476 2.1899886
-1.130325 -1.7432771 1.7576519
-1.090557 -1.6825799 1.3992078
-1.0603292 -1.637182 1.1075855
-1.0359344 -1.6001191 0.8584674
-1.0062222 -1.5548115 0.63431257
-0.98429358 -1.522083 0.43560895
-0.98423362 -1.5219855 0.25566554
-1.1489369 -1.76456 1.9565501
-1.1035876 -1.696195 1.5570207
-1.0727177 -1.6493703 1.2418
-1.0439934 -1.6070325 0.97335398
-1.023901 -1.5766978 0.74345607
-0.99783045 -1.5371305 0.53271675
-0.97870475 -1.5076635 0.34291482
-0.97344542 -1.5001254 0.16581348
-0.041533299 -0.037047874 4.8640885
-0.47124583 -0.69524258 5.3397622
-0.66134131 -0.98531884 5.7286763
-1.0166368 -1.5304264 5.9208622
-1.4966623 -2.2648396 6.4549584
-1.4034762 -2.1302552 4.7423048
-1.287945 -1.9593401 3.5163515
-1.2201828 -1.8583609 2.7383106
-0.17956406 -0.2398717 5.0210371
-0.31880516 -0.45979494 5.1751466
-0.82358187 -1.2301065 5.7370391
-1.3705564 -2.0615194 6.7861543
-1.4971461 -2.2612562 5.6712737
-1.3374541 -2.0254128 4.0402594
-1.25377 -1.9015541 3.0907781
-1.1694804 -1.7763963 2.3838975
-1.1676478 -1.7851175 2.1759706
-1.1300162 -1.7295457 1.7482367
-1.0872774 -1.6647595 1.388242
-1.0611955 -1.6260514 1.102948
-1.0339143 -1.5848451 0.85284829
-1.0037823 -1.5392352 0.63008249
-0.9842369 -1.5104067 0.43374372
-0.98410261 -1.510196 0.25477138
-1.1468961 -1.7480515 1.943248
-1.1028531 -1.6821917 1.5481913
-1.0690167 -1.631194 1.2316673
-1.0421391 -1.5919867 0.96705979
-1.0216415 -1.5612601 0.73852557
-0.99520755 -1.521435 0.52919978
-0.97853976 -1.4959495 0.34153345
-0.97320759 -1.4883556 0.16541041
-0.041662369 -0.03690267 4.8640885
-0.47323138 -0.69295192 5.3348227
-0.65850061 -0.97372764 5.674829
-1.0219728 -1.5268682 5.9208622
-1.503476 -2.2579756 6.450356
-1.3989815 -2.1073856 4.7028031
-1.2854527 -1.9407564 3.491554
-1.2178191 -1.8407246 2.7191229
-0.1802257 -0.23901351 5.0160451
-0.3204082 -0.45867929 5.1751466
-0.82716769 -1.2261822 5.7321992
-1.3700601 -2.0452535 6.7486124
-1.4881158 -2.2306638 5.6082573
-1.3329577 -2.0033619 4.0061316
-1.2487274 -1.8795975 3.0628481
-1.1700517 -1.763828 2.3728719
-1.1660215 -1.7691203 2.1619523
-1.127485 -1.7125869 1.7356828
-1.0861857 -1.6504756 1.3800176
-1.0595629 -1.6112335 1.0959915
-1.0318006 -1.569605 0.84722924
-1.0038803 -1.5277041 0.62726241
-0.9814145 -1.4946434 0.43094587
-0.98390138 -1.4984262 0.25387722
-1.1468135 -1.7346936 1.9332715
-1.0998064 -1.6648418 1.5364187
-1.0675776 -1.616661 1.2240678
-1.0401928 -1.5769737 0.96076572
-1.0166873 -1.5419152 0.73195153
-0.99516237 -1.5098351 0.52685511
-0.9755798 -1.4801207 0.33946142
-0.97289962 -1.4766058 0.16500735
-0.04175562 -0.036731374 4.8590884
-0.4756473 -0.6912958 5.3348227
-0.65329313 -0.958803 5.6014009
-1.0264616 -1.5220542 5.9160905
-1.5113488 -2.2527137 6.450356
-1.3956763 -2.0865641 4.6676908
-1.2812842 -1.9198731 3.4626231
-1.2153473 -1.8231277 2.6999354
-0.18088353 -0.23815362 5.0110536
-0.32200733 -0.45755807 5.1751466
-0.83144277 -1.2232873 5.7321992
-1.3598124 -2.0147128 6.6641431
-1.4776758 -2.1983554 5.5407386
-1.3297762 -1.9835331 3.97627
-1.243547 -1.8576993 3.0349178
-1.1724336 -1.7540962 2.3655217
-1.1623247 -1.7501855 2.1444294
-1.1248494 -1.6956668 1.723129
-1.0850075 -1.6362195 1.3717932
-1.05784 -1.5964473 1.0890352
-1.029593 -1.554399 0.84161013
-1.0012617 -1.5121914 0.62303233
-0.98120469 -1.4830151 0.42908064
-0.98088211 -1.482523 0.25253597
-1.1445816 -1.7182503 1.9199696
-1.0988919 -1.6508985 1.5275892
-1.0660499 -1.6021578 1.2164682
-1.0381544 -1.5619936 0.95447153
-1.0142237 -1.5265573 0.72702098
-0.9950484 -1.4982542 0.5245105
-0.97526109 -1.4684559 0.33808005
-0.97528464 -1.4690385 0.16480581
-0.04184819 -0.036559876 4.8540883
-0.47761461 -0.68899286 5.3298831
-0.65087169 -0.9481234 5.5524483
-1.0317683 -1.5184618 5.9160905
-1.518109 -2.245806 6.4457531
-1.3922427 -2.0657916 4.6325779
-1.2785561 -1.9013783 3.4378257
-1.2109804 -1.8029102 2.6769104
-0.18153755 -0.2372921 5.006062
-0.32329389 -0.45599666 5.1701756
-0.83499753 -1.2193406 5.7273598
-1.3571321 -1.9956846 6.6172152
-1.4658077 -2.1643453 5.4687195
-1.3250126 -1.9615903 3.9421425
-1.2399139 -1.8383586 3.0109777
-1.1728681 -1.7415574 2.3544962
-1.1604935 -1.7342623 2.1304114
-1.1242725 -1.6820221 1.7137135
-1.0814201 -1.6185151 1.3608273
-1.0560268 -1.5816925 1.0820787
-1.0272919 -1.5392275 0.83599097
-0.9985472 -1.4967158 0.61880219
-0.97820103 -1.4673194 0.42628276
-0.98052639 -1.4708028 0.25164184
-1.1443299 -1.704944 1.9099932
-1.0978934 -1.6369817 1.5187596
-1.0668349 -1.5912657 1.2114018
-1.0385495 -1.5508183 0.95027542
-1.0116655 -1.5112356 0.72209048
-0.99216253 -1.482653 0.52099353
-0.97487283 -1.4568115 0.33669871
-0.97762889 -1.4614726 0.16460429
-0.041975554 -0.036413576 4.8540883
-0.48001674 -0.68732148 5.3298831
-0.65185994 -0.94249642 5.5328674
-1.0362191 -1.5136194 5.9113183
-1.5237393 -2.2372637 6.4365482
-1.3873355 -2.0430872 4.5930762
-1.2741361 -1.880596 3.4088948
-1.2082838 -1.7853998 2.6577229
-0.18236476 -0.23665698 5.006062
-0.32488367 -0.45486537 5.1701756
-0.83924872 -1.2164185 5.7273598
-1.36409 -1.9909352 6.6172152
-1.4647642 -2.1466284 5.437211
-1.3201123 -1.9397049 3.908015
-1.2361614 -1.8190662 2.9870377
-1.1732292 -1.7290367 2.3434706
-1.1585652 -1.7183733 2.1163931
-1.1214398 -1.6651738 1.7011597
-1.0800575 -1.6043247 1.3526028
-1.0541238 -1.5669703 1.0751224
-1.0248976 -1.5240914 0.83037192
-0.9957369 -1.4812773 0.61457211
-0.97783881 -1.4557405 0.42441753
-0.98010081 -1.4591033 0.25074768
-1.1419075 -1.6885676 1.8966911
-1.0968113 -1.6230925 1.5099303
-1.0651438 -1.5768158 1.2038023
-1.0363408 -1.5358971 0.94398123
-1.0090126 -1.4959506 0.71715993
-0.99189728 -1.4711205 0.51864892
-0.97441518 -1.4451878 0.33531734
-0.97993219 -1.4539084 0.16440275
-0.042066839 -0.036241569 4.8490891
-0.48241299 -0.68564171 5.3298831
-0.65398139 -0.93854469 5.523077
-1.039801 -1.5075357 5.9017744
-1.5304341 -2.2303202 6.4319458
-1.3836397 -2.0224192 4.5579634
-1.2711734 -1.8621926 3.3840973
-1.2072854 -1.7705786 2.6423728
-0.18301195 -0.23579149 5.0010705
-0.32646948 -0.45372853 5.1701756
-0.84277213 -1.2124496 5.7225208
-1.3720117 -1.9875817 6.6219077
-1.4611484 -2.1253576 5.3966999
-1.3165506 -1.9200289 3.8781536
-1.2305868 -1.797336 2.9591074
-1.1735173 -1.7165351 2.3324451
-1.1565403 -1.7025189 2.102375
-1.1185033 -1.648366 1.6886059
-1.0809565 -1.5936239 1.3471199
-1.0521307 -1.5522807 1.0681659
-1.0250105 -1.5128286 0.82662582
-0.99552119 -1.4698491 0.61175203
-0.97740775 -1.444182 0.42255229
-0.97960556 -1.4474248 0.24985351
-1.1393849 -1.6722291 1.8833891
-1.0933708 -1.6058897 1.4981576
-1.0657905 -1.5659608 1.1987361
-1.0340408 -1.5210106 0.9376871
-1.0062656 -1.4807025 0.71222943
-0.98883229 -1.4555874 0.51513195
-0.9738884 -1.4335853 0.33393598
-0.98219466 -1.446346 0.16420123
-0.042193089 -0.036094505 4.8490891
-0.48480341 -0.68395358 5.3298831
-0.65666831 -0.9354229 5.5181818
-1.0442051 -1.5026711 5.8970022
-1.537099 -2.2233574 6.4273434
-1.3784572 -1.9998302 4.5184617
-1.2680976 -1.8438327 3.3592994
-1.2043836 -1.7531444 2.6231852
-0.18383391 -0.23515123 5.0010705
-0.3280513 -0.4525862 5.1701756
-0.84699929 -1.2095004 5.7225208
-1.3769705 -1.979947 6.6125221
-1.4574019 -2.1041381 5.3561888
-1.3128675 -1.9004016 3.8482921
-1.2282977 -1.7806278 2.9391572
-1.1718097 -1.7012607 2.3177445
-1.1544191 -1.6867 2.088357
-1.1176599 -1.6348122 1.6791905
-1.0794348 -1.5794843 1.3388957
-1.0500481 -1.5376241 1.0612096
-1.0224437 -1.4977552 0.82100672
-0.99253392 -1.454478 0.60752195
-0.97967541 -1.436703 0.42161968
-0.9790408 -1.4357677 0.24895935
-1.1367621 -1.6559287 1.870087
-1.0921103 -1.5920639 1.489328
-1.0639364 -1.5515652 1.1911365
-1.0316496 -1.5061587 0.93139297
-1.0060924 -1.4693884 0.70894241
-0.98841643 -1.4441047 0.51278734
-0.9704954 -1.4179174 0.33186394
-0.98723739 -1.4429088 0.16420123
-0.042318825 -0.035947006 4.8490891
-0.48718792 -0.68225712 5.3298831
-0.65875334 -0.93146253 5.5083909
-1.0494441 -1.499017 5.8970022
-1.5437341 -2.2163756 6.4227409
-1.3745002 -1.9792693 4.4833493
-1.2649095 -1.8255172 3.3345017
-1.2013748 -1.7357523 2.6039979
-0.18465361 -0.2345081 5.0010705
-0.32962912 -0.45143834 5.1701756
-0.85049129 -1.2055094 5.7176814
-1.3828834 -1.9737153 6.6078296
-1.4535253 -2.0829713 5.3156781
-1.3090636 -1.8808233 3.8184304
-1.2259073 -1.7639579 2.9192071
-1.1700095 -1.6860191 2.3030438
-1.1542258 -1.6738522 2.0778432
-1.1145278 -1.6180792 1.6666367
-1.0778272 -1.565375 1.3306712
-1.047876 -1.5230012 1.0542531
-1.0197841 -1.482718 0.81538767
-0.9921695 -1.4430988 0.60470188
-0.97912127 -1.4251769 0.41975445
-0.97840667 -1.4241321 0.24806519
-1.1340396 -1.6396675 1.8567851
-1.0907665 -1.5782667 1.4804987
-1.0619947 -1.537202 1.1835369
-1.0317451 -1.4950777 0.92719686
-1.0058523 -1.4580934 0.7056554
-0.98517317 -1.4286414 0.50927037
-0.96981639 -1.4063678 0.33048257
-0.99226803 -1.4394538 0.16420123
-0.042479873 -0.035823956 4.8540883
-0.48956645 -0.68055236 5.3298831
-0.6614098 -0.92832828 5.5034962
-1.0538098 -1.4941249 5.8922305
-1.550339 -2.2093742 6.4181385
-1.3690434 -1.9567981 4.4438477
-1.261609 -1.8072463 3.3097041
-1.2000929 -1.7210318 2.5886478
-0.18547107 -0.2338621 5.0010705
-0.33088675 -0.4498558 5.165204
-0.85396576 -1.2015088 5.7128415
-1.387774 -1.9660563 6.598444
-1.4470147 -2.0582955 5.2661648
-1.3066366 -1.8634306 3.792835
-1.2216873 -1.744858 2.895267
-1.1681174 -1.6708112 2.2883432
-1.1539572 -1.6610266 2.0673294
-1.1112925 -1.601388 1.6540829
-1.0737512 -1.5478604 1.3197054
-1.045615 -1.5084124 1.0472968
-1.0196726 -1.4715283 0.81164157
-0.99173772 -1.4317398 0.6018818
-0.98129433 -1.4177113 0.41882181
-0.97770321 -1.4125186 0.24717103
-1.1312176 -1.6234454 1.843483
-1.0916497 -1.5678155 1.4746124
-1.0599661 -1.5228713 1.1759374
-1.0291849 -1.480288 0.92090267
-1.005546 -1.4468182 0.70236832
-0.98183405 -1.4132185 0.50575346
-0.96906865 -1.3948401 0.3291012
-0.97448808 -1.4031541 0.16258898
-0.042604666 -0.035675459 4.8540883
-0.49148291 -0.67821038 5.3249445
-0.66405237 -0.92518687 5.498601
-1.0581541 -1.4892206 5.8874583
-1.5478913 -2.1895919 6.3767157
-1.3620669 -1.9324319 4.3999567
-1.2581964 -1.7890211 3.2849064
-1.1987227 -1.7063415 2.5732977
-0.18628629 -0.23321328 5.0010705
-0.33245504 -0.44869807 5.165204
-0.85742277 -1.1974987 5.7080021
-1.3936281 -1.9597938 6.593751
-1.4403497 -2.0336909 5.2166514
-1.3041041 -1.8460776 3.7672393
-1.2208228 -1.7307339 2.879307
-1.1680857 -1.6584086 2.2773178
-1.1556582 -1.6511452 2.0603204
-1.1079543 -1.5847392 1.6415291
-1.074357 -1.5372483 1.3142223
-1.0432646 -1.493858 1.0403403
-1.0168418 -1.4565563 0.80602247
-0.99123877 -1.4204016 0.59906173
-0.98061752 -1.4062188 0.41695657
-0.98262793 -1.4090973 0.24717103
-1.1282963 -1.6072632 1.830181
-1.0901518 -1.5540683 1.4657828
-1.0553752 -1.5050441 1.1658047
-1.0265346 -1.4655348 0.91460848
-1.0024645 -1.4316947 0.69743782
-0.98118657 -1.4018185 0.50340879
-0.97109193 -1.3873919 0.32841054
-0.96792352 -1.3833702 0.16178286
-0.042728934 -0.035526522 4.8540883
-0.49338898 -0.67586321 5.3200049
-0.66668105 -0.92203814 5.4937057
-1.0624771 -1.4843043 5.8826866
-1.5487247 -2.1746278 6.3491006
-1.3563237 -1.9100912 4.3604546
-1.2530453 -1.7685459 3.2559757
-1.1954131 -1.6890655 2.5541103
-0.18709922 -0.23256159 5.0010705
-0.33401924 -0.44753483 5.165204
-0.86159754 -1.1944984 5.7080021
-1.3994557 -1.9535147 6.5890589
-1.4335307 -2.0091581 5.1671381
-1.3014667 -1.8287652 3.7416439
-1.2181292 -1.7141808 2.8593569
-1.1660199 -1.6432621 2.2626171
-1.1552494 -1.6383578 2.0498068
-1.1067551 -1.5713158 1.6321138
-1.0724945 -1.5232319 1.3059981
-1.0408255 -1.4793383 1.033384
-1.0139189 -1.4416223 0.80040342
-0.99067277 -1.4090844 0.59624165
-0.98269624 -1.3987678 0.41602394
-0.9703638 -1.3812095 0.24448855
-1.127432 -1.5941697 1.8202046
-1.0885714 -1.540351 1.4569534
-1.0531603 -1.4907886 1.1582052
-1.0264102 -1.4545262 0.91041237
-1.002012 -1.4204695 0.69415081
-0.97767055 -1.3864681 0.49989185
-0.97022128 -1.3758997 0.32702917
-0.9525978 -1.3513993 0.16037214
-0.042852685 -0.035377152 4.8540883
-0.49574515 -0.67413688 5.3200049
-0.66929573 -0.91888243 5.4888101
-1.0676519 -1.4805864 5.8826866
-1.5528891 -2.1644464 6.3352928
-1.3490481 -1.8858668 4.3165641
-1.2494016 -1.750419 3.231178
-1.1938584 -1.6744434 2.5387602
-0.18790986 -0.23190708 5.0010705
-0.3355794 -0.44636616 5.165204
-0.8650229 -1.1904669 5.7031631
-1.4052562 -1.9472183 6.5843658
-1.4252875 -1.9829302 5.1131234
-1.3002439 -1.8136135 3.720314
-1.2153349 -1.6976681 2.8394065
-1.1658341 -1.6309081 2.2515917
-1.154765 -1.6255932 2.0392931
-1.1032231 -1.5547456 1.6195598
-1.0705473 -1.5092474 1.2977736
-1.0382981 -1.4648542 1.0264276
-1.0109043 -1.4267262 0.79478431
-0.99003994 -1.3977886 0.59342158
-0.98189712 -1.3873098 0.4141587
-0.96654832 -1.3656194 0.24314731
-1.1264898 -1.581102 1.810228
-1.0869086 -1.5266637 1.4481238
-1.0533586 -1.4800791 1.1531388
-1.023592 -1.4398373 0.90411824
-1.0014935 -1.4092649 0.69086379
-0.97687423 -1.3751217 0.49754718
-0.96928227 -1.3644304 0.3256478
-0.95441651 -1.3439925 0.16017061
-0.042939741 -0.035202965 4.8490891
-0.4980953 -0.67240226 5.3200049
-0.67189682 -0.91571987 5.4839153
-1.0710588 -1.4744353 5.8731422
-1.5444127 -2.1368458 6.2708578
-1.3458208 -1.8675454 4.2858405
-1.2440039 -1.7300546 3.2022474
-1.1940861 -1.6624559 2.5272477
-0.18890151 -0.23147279 5.006062
-0.33681333 -0.44476736 5.1602321
-0.86843061 -1.1864259 5.6983237
-1.4110298 -1.9409053 6.5796728
-1.4258164 -1.9691269 5.0906172
-1.2974043 -1.7963784 3.6947184
-1.2124404 -1.6811955 2.8194566
-1.1635951 -1.6158246 2.236891
-1.1521305 -1.609952 2.025275
-1.1018528 -1.5413859 1.6101445
-1.0709468 -1.4986972 1.2922907
-1.0382565 -1.454011 1.02179
-1.0104915 -1.4156425 0.79103822
-0.98934048 -1.3865145 0.59060156
-0.97817808 -1.371875 0.41136083
-1.1232932 -1.565027 1.796926
-1.0851635 -1.5130067 1.4392942
-1.050983 -1.4658831 1.1455393
-1.0233266 -1.428876 0.89992213
-1.0009087 -1.3980812 0.68757677
-0.97883952 -1.3677506 0.49637488
-0.96827513 -1.3529847 0.32426646
-0.95910221 -1.3406528 0.16017061
-0.043062359 -0.035052862 4.8490891
-0.50043941 -0.67065954 5.3200049
-0.67448372 -0.91255015 5.4790201
-1.0761989 -1.4706877 5.8731422
-1.5472623 -2.1251245 6.2524476
-1.3410748 -1.8473314 4.2507277
-1.2401301 -1.7120283 3.1774499
-1.1923659 -1.6478908 2.5118976
-0.18970834 -0.23081198 5.006062
-0.3383638 -0.44358891 5.1602321
-0.87182057 -1.1823757 5.6934838
-1.4167765 -1.9345759 6.5749803
-1.4237007 -1.9518269 5.0591087
-1.2959948 -1.7812942 3.6733885
-1.2094456 -1.6647643 2.7995064
-1.1612654 -1.6007768 2.2221904
-1.1514865 -1.5972421 2.0147614
-1.1004025 -1.5280547 1.6007291
-1.0688426 -1.484769 1.2840662
-1.035565 -1.4395899 1.0148336
-1.0100137 -1.4045789 0.78729212
-0.98857433 -1.3752623 0.58778149
-0.97722924 -1.3604728 0.40949559
-1.1221859 -1.5520195 1.7869495
-1.0833366 -1.4993809 1.4304649
-1.0485212 -1.4517218 1.1379397
-1.0203415 -1.4142535 0.893628
-0.99749613 -1.3830889 0.68264627
-0.97792286 -1.3564401 0.49403024
-0.96719998 -1.3415626 0.3228851
-0.96085507 -1.3332436 0.15996908
-0.043220796 -0.03492647 4.8540883
-0.5027774 -0.66890854 5.3200049
-0.677665 -0.91019022 5.4790201
-1.0804403 -1.4657207 5.8683701
-1.5384939 -2.097656 6.1880121
-1.3390323 -1.8310401 4.2243934
-1.2344868 -1.691777 3.148519
-1.1905586 -1.6333581 2.4965477
-0.1906977 -0.23037012 5.0110536
-0.33991015 -0.4424051 5.1602321
-0.87594247 -1.1793252 5.6934838
-1.4214717 -1.9268414 6.5655947
-1.4214816 -1.9345659 5.0276008
-1.2944958 -1.7662421 3.6520593
-1.2081308 -1.6508062 2.7835462
-1.1588447 -1.585765 2.2074897
-1.1486721 -1.5816709 2.0007432
-1.1011584 -1.5179033 1.5944521
-1.0666546 -1.4708742 1.275842
-1.035385 -1.4287922 1.010196
-1.0067513 -1.3897816 0.78167301
-0.98492825 -1.3601472 0.58355141
-0.97621286 -1.3490942 0.40763035
-0.98371512 -1.3594575 0.24359439
-1.1210016 -1.5390389 1.7769731
-1.0814277 -1.4857862 1.4216353
-1.0485098 -1.4410814 1.1328733
-1.0172671 -1.3996694 0.88733381
-0.99676657 -1.3719579 0.67935926
-0.97979534 -1.3490853 0.49285793
-0.96605682 -1.3301646 0.32150373
-0.96256799 -1.3258387 0.15976755
-0.043342449 -0.034775387 4.8540883
-0.50510925 -0.66714948 5.3200049
-0.68083805 -0.90781915 5.4790201
-1.0846601 -1.460742 5.8635988
-1.530714 -2.0718462 6.1281791
-1.3354717 -1.8128574 4.1936703
-1.2303845 -1.6738535 3.1237214
-1.1886644 -1.6188583 2.4811976
-0.19150068 -0.22970305 5.0110536
-0.34112576 -0.44079456 5.1552606
-0.88080698 -1.1772668 5.6983237
-1.4271598 -1.9204828 6.5609021
-1.4191594 -1.9173441 4.9960918
-1.2929077 -1.7512224 3.6307294
-1.2049452 -1.6344521 2.7635963
-1.1563334 -1.5707897 2.1927891
-1.1457632 -1.5661389 1.986725
-1.0995604 -1.5046227 1.5850369
-1.0643824 -1.4570127 1.2676175
-1.0351423 -1.4180137 1.0055584
-1.0061309 -1.3787694 0.77792698
-0.98401582 -1.3489499 0.58073127
-0.97223544 -1.3337697 0.40483251
-0.96792024 -1.3278456 0.24046485
-1.1175315 -1.5230753 1.763671
-1.0794373 -1.4722234 1.4128059
-1.0458883 -1.4269819 1.1252737
-1.0167844 -1.3887861 0.88313776
-0.99597168 -1.360849 0.67607224
-0.97875851 -1.3378114 0.49051329
-0.96192205 -1.3147944 0.31943169
-0.96129179 -1.3144056 0.15936449
-0.043463573 -0.034623884 4.8540883
-0.50743496 -0.66538227 5.3200049
-0.68400276 -0.90543705 5.4790201
-1.0897524 -1.4569468 5.8635988
-1.5227728 -2.0461168 6.0683465
-1.3318006 -1.794722 4.1629462
-1.2278466 -1.6582412 3.1030567
-1.1866837 -1.6043917 2.4658477
-0.19230132 -0.22903319 5.0110536
-0.34266233 -0.43960115 5.1552606
-0.884911 -1.1741852 5.6983237
-1.4317863 -1.9127265 6.5515161
-1.4154332 -1.8984171 4.9600821
-1.2896742 -1.7341423 3.6051338
-1.2034569 -1.6205597 2.7476361
-1.1557512 -1.5585746 2.1817634
-1.1427598 -1.5506464 1.9727067
-1.097883 -1.4913719 1.5756215
-1.0620267 -1.4431852 1.2593931
-1.0348371 -1.4072542 1.0009208
-1.005446 -1.3677784 0.77418089
-0.98303735 -1.3377757 0.5779112
-0.97107029 -1.322449 0.40296727
-0.96665436 -1.3164308 0.23957069
-1.1161833 -1.5101573 1.7536945
-1.0773654 -1.4586926 1.4039763
-1.045742 -1.4163866 1.1202074
-1.0135443 -1.3742707 0.87684357
-0.99511147 -1.3497626 0.67278522
-0.97765505 -1.3265612 0.48816866
-0.97531956 -1.3233879 0.32150373
-0.96291077 -1.3070198 0.15916295
-0.043620769 -0.034495715 4.8590884
-0.50928092 -0.66299087 5.3150659
-0.68715918 -0.90304393 5.4790201
-1.0939331 -1.4519418 5.8588266
-1.5146707 -2.0204682 6.0085135
-1.3280194 -1.7766345 4.1322227
-1.225215 -1.6426671 3.082392
-1.1827013 -1.5873885 2.44666
-0.19309963 -0.22836053 5.0110536
-0.34419477 -0.43840235 5.1552606
-0.88976449 -1.1720901 5.7031631
-1.4363762 -1.9049615 6.5421309
-1.4128997 -1.8812803 4.9285736
-1.2863373 -1.7171067 3.5795383
-1.2018863 -1.6066978 2.7316759
-1.155098 -1.5463827 2.170738
-1.1396625 -1.5351943 1.9586885
-1.0961267 -1.4781511 1.5662062
-1.0620775 -1.4327509 1.2539102
-1.0318326 -1.3929548 0.99396437
-1.0046966 -1.356809 0.77043486
-0.9819929 -1.3266248 0.57509118
-0.9698382 -1.3111527 0.40110204
-0.96532071 -1.3050411 0.23867653
-1.1125286 -1.4942727 1.7403926
-1.077625 -1.4484372 1.39809
-1.0429621 -1.4023507 1.112608
-1.0129219 -1.3634381 0.87264746
-0.99418604 -1.3386986 0.66949821
-0.97648495 -1.315335 0.48582402
-0.9858368 -1.3279276 0.3228851
-0.96449 -1.2996389 0.15896143
-0.043740917 -0.034343239 4.8590884
-0.51159209 -0.66120911 5.3150659
-0.68968767 -0.89983183 5.4741244
-1.0989946 -1.4481145 5.8588266
-1.5040538 -1.9917834 5.939476
-1.3241282 -1.7585955 4.1014996
-1.2224895 -1.6271315 3.0617273
-1.180539 -1.5729964 2.4313099
-0.19389558 -0.22768511 5.0110536
-0.345723 -0.43719822 5.1552606
-0.89537764 -1.1709739 5.7128415
-1.4398857 -1.8958135 6.5280528
-1.4089502 -1.8624485 4.8925643
-1.2813262 -1.6980336 3.5496764
-1.1984203 -1.5904602 2.711726
-1.1543738 -1.5342145 2.1597126
-1.1364713 -1.5197829 1.9446703
-1.0942913 -1.4649609 1.5567907
-1.0595667 -1.4189837 1.2456857
-1.0313901 -1.3822439 0.98932678
-1.0038829 -1.3458618 0.76668876
-0.98088264 -1.3154975 0.57227111
-0.96853906 -1.2998812 0.3992368
-1.111017 -1.4814192 1.7304161
-1.0754023 -1.4349635 1.3892606
-1.0426815 -1.3918016 1.1075416
-1.0095172 -1.3489929 0.86635327
-0.99602419 -1.3314389 0.66785467
-0.97524852 -1.3041334 0.48347941
-0.99343187 -1.3284441 0.32357576
-0.96602935 -1.2922627 0.15875989
-0.043860532 -0.034190346 4.8590884
-0.51389706 -0.6594193 5.3150659
-0.69282442 -0.89741886 5.4741244
-1.1031362 -1.4430836 5.8540545
-1.4944379 -1.9647524 5.8750405
-1.3201272 -1.7406052 4.0707755
-1.2213689 -1.613879 3.0451953
-1.1782906 -1.5586388 2.4159601
-0.19468915 -0.2270069 5.0110536
-0.34691462 -0.43557209 5.1502895
-0.90022677 -1.1688371 5.7176814
-1.4454459 -1.889405 6.5233598
-1.4048868 -1.8436671 4.8565545
-1.2761977 -1.6790166 3.519815
-1.1966774 -1.5766666 2.6957657
-1.1556265 -1.5247719 2.1523621
-1.1353323 -1.5072613 1.9341568
-1.0923777 -1.4518018 1.5473754
-1.0594863 -1.4085932 1.2402028
-1.0282241 -1.3680121 0.98237038
-1.0030051 -1.3349369 0.76294273
-0.97970682 -1.3043942 0.56945103
-0.96717304 -1.288635 0.39737156
-1.1094291 -1.4685943 1.7204396
-1.075534 -1.424749 1.3833743
-1.0397433 -1.3778306 1.0999421
-1.0087559 -1.3382127 0.86215717
-0.994982 -1.3204114 0.66456765
-0.9739458 -1.2929565 0.48113477
-1.0129606 -1.3447453 0.32702917
-0.97353953 -1.2928739 0.15896143
-0.043979608 -0.034037035 4.8590884
-0.51619571 -0.65762144 5.3150659
-0.69532758 -0.89419127 5.4692292
-1.1081668 -1.4392241 5.8540545
-1.4787109 -1.9300594 5.7875924
-1.3174711 -1.7245679 4.0444412
-1.2201707 -1.6006541 3.0286636
-1.1759566 -1.5443162 2.40061
-0.19548038 -0.22632593 5.0110536
-0.34843293 -0.43435851 5.1502895
-0.90661299 -1.1686667 5.7321992
-1.4414984 -1.8706794 6.4764318
-1.399384 -1.8232102 4.8160434
-1.2709525 -1.6600566 3.4899538
-1.1948531 -1.5629047 2.6798058
-1.1547704 -1.5126449 2.1413364
-1.1319641 -1.4919249 1.9201386
-1.0903853 -1.4386737 1.5379601
-1.0568213 -1.3948878 1.2319785
-1.0249712 -1.3538195 0.97541398
-1.0020634 -1.3240345 0.75919664
-0.98135966 -1.297141 0.56804103
-0.9657405 -1.2774141 0.39550632
-0.97893381 -1.2948608 0.23867653
-1.1077656 -1.4557987 1.7104629
-1.0731609 -1.4113337 1.3745449
-1.0393289 -1.367329 1.0948756
-1.0079318 -1.3274541 0.85796106
-0.99387485 -1.3094075 0.66128063
-0.97257704 -1.2818046 0.47879013
-0.9847219 -1.2978063 0.31943169
-0.95993161 -1.2655847 0.15775223
-0.044098154 -0.033883311 4.8590884
-0.51800597 -0.6552062 5.3101263
-0.69781667 -0.89095724 5.464334
-1.111354 -1.4329883 5.8445106
-1.481858 -1.920246 5.7737851
-1.3132585 -1.7066721 4.0137177
-1.2171813 -1.5852256 3.0079987
-1.1735369 -1.5300291 2.3852601
-0.19626921 -0.22564219 5.0110536
-0.34961167 -0.43272516 5.145318
-0.91223496 -1.1674757 5.7418785
-1.4363799 -1.8506415 6.4248118
-1.3950872 -1.8045367 4.7800336
-1.2655903 -1.6411535 3.4600921
-1.1929474 -1.5491749 2.6638458
-1.1538435 -1.5005424 2.1303113
-1.1285028 -1.4766307 1.9061204
-1.0906768 -1.4286714 1.5316831
-1.0566103 -1.3845423 1.2264955
-1.0216318 -1.3396661 0.96845758
-1.0010579 -1.3131549 0.75545061
-0.98006642 -1.2860767 0.56522095
-0.9642415 -1.2662191 0.39364108
-0.9562937 -1.2557782 0.23465282
-1.1060264 -1.4430331 1.7004865
-1.0707073 -1.3979522 1.3657153
-1.0388541 -1.3568474 1.0898093
-1.0042877 -1.3131126 0.85166693
-0.99270326 -1.2984275 0.65799361
-0.97114235 -1.270678 0.4764455
-0.97120363 -1.2707539 0.31528762
-0.95221144 -1.2463466 0.15694611
-0.04421616 -0.03372917 4.8590884
-0.5202899 -0.65339398 5.3101263
-0.70092243 -0.88851595 5.464334
-1.1154304 -1.4279239 5.8397388
-1.4777607 -1.9011798 5.7323623
-1.3104044 -1.69072 3.9873831
-1.2158209 -1.5720636 2.991467
-1.1729919 -1.5183142 2.3737476
-0.19705567 -0.22495571 5.0110536
-0.35112 -0.43150213 5.145318
-0.91785967 -1.1662596 5.7515569
-1.433265 -1.8333809 6.3825769
-1.3893396 -1.7841979 4.7395229
-1.2617118 -1.624368 3.4344964
-1.1909602 -1.5354775 2.6478853
-1.1507705 -1.4857849 2.1156106
-1.1271238 -1.4642048 1.8956068
-1.0885389 -1.4155989 1.5222677
-1.0563402 -1.3742154 1.2210126
-1.0209049 -1.3290659 0.96381998
-0.99998862 -1.3022988 0.75170451
-0.98162866 -1.2788424 0.56381088
-0.96267611 -1.2550502 0.39177582
-0.96067137 -1.2524325 0.23465282
-1.1042114 -1.4302971 1.69051
-1.0706425 -1.3878057 1.3598289
-1.038319 -1.3463857 1.0847429
-1.0033256 -1.3024085 0.84747082
-0.99146718 -1.2874718 0.6547066
-0.96964186 -1.2595773 0.47410086
-0.9695918 -1.259508 0.31390625
-0.9565562 -1.2430152 0.15694611
-0.044333626 -0.033574622 4.8590884
-0.5220812 -0.65096796 5.3051872
-0.70338613 -0.88526678 5.4594393
-1.1194849 -1.4228485 5.8349667
-1.4759572 -1.8852421 5.7001443
-1.308929 -1.6766968 3.9654377
-1.2126541 -1.5567105 2.9708023
-1.1743475 -1.5091513 2.3660727
-0.197648 -0.22405064 5.006062
-0.35262409 -0.43027389 5.145318
-0.92426777 -1.1660033 5.7660751
-1.430047 -1.8161647 6.3403416
-1.3848108 -1.7656343 4.7035131
-1.2577316 -1.6076298 3.408901
-1.1870371 -1.5194386 2.6279354
-1.1476086 -1.4710672 2.1009099
-1.1234869 -1.4489884 1.8815886
-1.0863233 -1.402559 1.5128524
-1.0534507 -1.3606009 1.2127882
-1.0174057 -1.3149836 0.95686358
-1.0016922 -1.2951331 0.7498315
-0.98021829 -1.2678181 0.56099087
-0.96404791 -1.247795 0.39084318
-0.96199268 -1.2451307 0.23420574
-1.1023213 -1.4175917 1.6805335
-1.0680399 -1.374485 1.3509996
-1.0377234 -1.3359444 1.0796765
-1.0023011 -1.2917269 0.84327471
-0.99016672 -1.2765406 0.65141958
-0.96807581 -1.2485026 0.47175622
-0.97398233 -1.2561159 0.31390625
-0.044450551 -0.033419665 4.8590884
-0.52435029 -0.64914155 5.3051872
-0.70583558 -0.88201123 5.4545436
-1.1225903 -1.4165925 5.8254223
-1.4571239 -1.8478639 5.6034913
-1.3073716 -1.6627042 3.9434922
-1.211132 -1.5436126 2.9542706
-1.1736764 -1.4974749 2.3545601
-0.19842888 -0.22335938 5.006062
-0.35412386 -0.42904037 5.145318
-0.92911667 -1.1637522 5.7709146
-1.4267266 -1.7989936 6.2981067
-1.3801694 -1.7471242 4.6675034
-1.2536502 -1.5909392 3.3833053
-1.18488 -1.5058138 2.6119754
-1.1464527 -1.4590553 2.0898843
-1.1219527 -1.436626 1.8710749
-1.0840298 -1.389552 1.5034369
-1.0530508 -1.3503209 1.2073052
-1.0165436 -1.304436 0.95222592
-1.0005088 -1.2843144 0.74608546
-0.98169047 -1.2606041 0.5595808
-0.9623639 -1.2366688 0.38897794
-1.1003557 -1.4049169 1.670557
-1.0653573 -1.3611996 1.34217
-1.0370677 -1.3255237 1.0746102
-0.99841958 -1.2774928 0.83698058
-0.98880219 -1.2656343 0.64813256
-0.96943617 -1.2412851 0.47058392
-0.97531301 -1.2488056 0.31321558
-0.044566941 -0.033264302 4.8590884
-0.52612251 -0.64670473 5.3002481
-0.70827103 -0.87874943 5.4496484
-1.126597 -1.4114987 5.8206506
