# .PCD v0.7 - Point Cloud Data file format
VERSION 0.7
FIELDS x y z
SIZE 4 4 4
TYPE F F F
COUNT 1 1 1
WIDTH 1419
HEIGHT 1
VIEWPOINT 0 0 0 1 0 0 0
POINTS 1419
DATA ascii
-0.99633688 -0.8603797 1.3734293
-0.97108728 -0.83945143 1.1174068
-0.95367712 -0.82468629 0.91122693
-0.93231887 -0.80677652 0.73193997
-0.9294706 -0.80458891 0.58500457
-0.9358651 -0.81040299 0.45382836
-0.90581077 -0.78492498 0.31903145
-0.90685582 -0.78582716 0.2006748
-0.98445755 -0.84771866 1.238242
-0.96650648 -0.83283943 1.012536
-0.94825709 -0.8173964 0.82129234
-0.92859221 -0.80128384 0.65445
-0.92267835 -0.79645503 0.51336479
-0.90511823 -0.7815665 0.37914312
-0.91069371 -0.78637743 0.26003322
-0.90718549 -0.78361773 0.14203283
-0.081343524 -0.03543441 8.6639433
-1.6425984 -1.3616725 13.563626
-2.2921813 -1.9182093 14.393229
-1.2447681 -1.0521027 5.2575564
-1.1696839 -0.9935106 3.6750338
-1.1088072 -0.94444793 2.7364957
-1.0599757 -0.90475303 2.119415
-1.0273579 -0.8778311 1.6945094
-0.64718348 -0.48523322 13.826323
-1.1583509 -0.9392364 13.865335
-1.3343805 -1.119513 6.743639
-1.2030513 -1.0161026 4.3365307
-1.1486368 -0.97389513 3.1776016
-1.0823261 -0.91992748 2.3936086
-1.0392071 -0.8845157 1.8818009
-1.0071361 -0.85841739 1.5128835
-0.99662673 -0.85457522 1.3699248
-0.97105801 -0.83352154 1.1142684
-0.95020503 -0.8159045 0.90574402
-0.93176955 -0.80063039 0.72962117
-0.92875773 -0.79831767 0.58313155
-0.93141353 -0.80087626 0.45100829
-0.90482157 -0.77855438 0.31809881
-0.9058184 -0.77940869 0.20022772
-0.98457271 -0.8418507 1.2349164
-0.96633649 -0.82683295 1.0095929
-0.94782948 -0.81127834 0.81875914
-0.92793709 -0.79508454 0.65235192
-0.92186737 -0.7901563 0.51172131
-0.90784091 -0.77840227 0.37914312
-0.91343313 -0.78319371 0.26003322
-0.9061231 -0.77719373 0.14183129
-0.08146672 -0.035150252 8.6639433
-1.6467415 -1.3554368 13.558688
-2.3035619 -1.9141005 14.4226
-1.2438592 -1.0439132 5.2384686
-1.1686642 -0.98564333 3.6612263
-1.1066109 -0.93593222 2.7233284
-1.0588338 -0.89740878 2.1111491
-1.0255275 -0.87009263 1.6868343
-0.64864147 -0.48279908 13.821331
-1.1612071 -0.93485314 13.860364
-1.3324851 -1.1100218 6.7146025
-1.2013015 -1.0074618 4.3177595
-1.1470331 -0.96567392 3.1640978
-1.0815443 -0.91277993 2.3850765
-1.0376853 -0.876993 1.8738209
-1.0049506 -0.85051662 1.5055332
-0.99417287 -0.84646755 1.3629158
-0.97099924 -0.82760209 1.11113
-0.9498654 -0.80986983 0.9030025
-0.93118864 -0.79449791 0.72730237
-0.92801249 -0.79206127 0.58125854
-0.93055516 -0.79450536 0.44959825
-0.903799 -0.77220029 0.31716621
-0.9009611 -0.76977229 0.19933358
-0.9818126 -0.8335759 1.2282655
-0.96613634 -0.82083774 1.0066497
-0.94737077 -0.80517316 0.81622595
-0.92725003 -0.78889966 0.65025389
-0.92102385 -0.78387308 0.51007777
-0.90685147 -0.77207768 0.37797081
-0.91239077 -0.77679026 0.25934252
-0.90502709 -0.7707867 0.14162977
-0.081588916 -0.034865666 8.6639433
-1.6514628 -1.3496803 13.558688
-1.2429084 -1.035743 5.2193809
-1.1661061 -0.97654098 3.6428163
-1.1062027 -0.92898345 2.7145503
-1.0576535 -0.89008367 2.1028829
-1.0236557 -0.86237752 1.6791594
-0.6500904 -0.48036069 13.816339
-1.1644633 -0.93079406 13.860364
-1.3305398 -1.1005574 6.6855659
-1.2008322 -0.99994981 4.3036814
-1.1453861 -0.95747584 3.1505942
-1.0787268 -0.90397394 2.3722787
-1.0361236 -0.86949164 1.8658408
-1.0053179 -0.84482253 1.501858
-0.99439806 -0.84068972 1.3594111
-0.97091103 -0.82169324 1.1079915
-0.94949508 -0.80384743 0.90026098
-0.93057632 -0.78837913 0.72498357
-0.92723495 -0.78581977 0.57938552
-0.92600465 -0.78504819 0.44677821
-0.9027431 -0.76586294 0.31623358
-0.89984512 -0.76340103 0.1988865
-0.98186159 -0.82773715 1.2249401
-0.9659062 -0.81485403 1.0037066
-0.94358659 -0.79630107 0.81115961
-0.9299981 -0.78565818 0.65025389
-0.9201476 -0.77760535 0.5084343
-0.90582901 -0.76576948 0.37679848
-0.9113149 -0.77040368 0.25865185
-0.90389735 -0.76439691 0.14142823
-0.081751235 -0.034595288 8.6689434
-1.6555606 -1.3434179 13.553748
-1.2407655 -1.0266408 5.1955204
-1.1650008 -0.96871752 3.6290085
-1.1039205 -0.92051542 2.7013831
-1.0564351 -0.88277763 2.0946171
-1.024201 -0.85674256 1.6753218
-0.65153027 -0.47791809 13.811348
-1.1677052 -0.9267236 13.860364
-1.3285446 -1.0911202 6.6565294
-1.1989952 -0.99135393 4.2849102
-1.1436957 -0.949301 3.1370907
-1.0778658 -0.89686698 2.3637469
-1.0322073 -0.86008304 1.8538706
-1.0030546 -0.83696437 1.4945077
-0.99186355 -0.83262783 1.3524021
-0.97079343 -0.81579512 1.104853
-0.94909447 -0.79783762 0.89751953
-0.93332261 -0.78512603 0.72498357
-0.9264251 -0.77959353 0.57751244
-0.92506939 -0.77872175 0.44536817
-0.90165401 -0.75954235 0.31530097
-0.89869571 -0.757047 0.19843942
-0.97901863 -0.81951171 1.218289
-0.96564603 -0.808882 1.0007634
-0.94305629 -0.79023391 0.80862641
-0.92925763 -0.77949035 0.64815581
-0.91923898 -0.77135336 0.50679076
-0.90477365 -0.75947785 0.37562618
-0.90641266 -0.76085031 0.25727049
-0.90273404 -0.75802445 0.14122671
-0.081871495 -0.034309711 8.6689434
-1.6602399 -1.3376306 13.553748
-1.3960749 -1.1356537 8.6756029
-1.2397275 -1.0185136 5.1764326
-1.1623486 -0.95967019 3.6105986
-1.1015924 -0.91207457 2.6882157
-1.0573444 -0.87728798 2.0904841
-1.0222539 -0.84906656 1.6676468
-0.65342808 -0.47581053 13.816339
-1.1713518 -0.92297179 13.865335
-1.3265001 -1.0817106 6.6274929
-1.1984468 -0.98387802 4.2708321
-1.1436423 -0.94253421 3.1280882
-1.074958 -0.888116 2.3509493
-1.0305598 -0.85263336 1.8458906
-1.0033594 -0.83129519 1.4908326
-0.99202436 -0.8268773 1.3488976
-0.9706465 -0.80990779 1.1017146
-0.94866341 -0.79184043 0.89477807
-0.9326576 -0.77902365 0.72266477
-0.92558336 -0.77338248 0.57563943
-0.92410129 -0.77241147 0.44395813
-0.9042998 -0.75639033 0.31530097
-0.90133274 -0.7539053 0.19843942
-0.97900182 -0.81370288 1.2149636
-0.96224838 -0.80033708 0.9948771
-0.94580895 -0.78693718 0.80862641
-0.92848563 -0.77333748 0.64605778
-0.92192596 -0.7681399 0.50679076
-0.90368545 -0.75320309 0.37445387
-0.90525895 -0.75451118 0.25657982
-0.90153742 -0.75166935 0.14102517
-0.081990764 -0.034023717 8.6689434
-1.664899 -1.3318273 13.553748
-1.4000305 -1.1307737 8.6756029
-1.2374914 -1.0094626 5.1525726
-1.1611587 -0.9518916 3.5967908
-1.0992187 -0.90366119 2.6750484
-1.0560564 -0.87001348 2.0822184
-1.0227385 -0.84345382 1.6638092
-0.65508503 -0.47352672 13.816339
-1.1745665 -0.91887742 13.865335
-1.3244059 -1.0723283 6.5984564
-1.1978608 -0.97641808 4.2567539
-1.141871 -0.9344008 3.1145847
-1.0740186 -0.88105035 2.3424172
-1.0312014 -0.84711832 1.8419007
-1.0036368 -0.82563406 1.4871573
-0.99215722 -0.82113576 1.3453929
-0.97047025 -0.80403155 1.0985761
-0.95142174 -0.78852421 0.89477807
-0.93196142 -0.77293545 0.72034597
-0.92470938 -0.76718688 0.57376641
-0.92679191 -0.76918101 0.44395813
-0.90315574 -0.75009078 0.31436834
-0.90012783 -0.74757272 0.19799234
-0.97895628 -0.80790395 1.211638
-0.96191955 -0.79439962 0.99193394
-0.94522667 -0.7808854 0.80609328
-0.93117946 -0.77009165 0.64605778
-0.92096323 -0.76190716 0.50514728
-0.90256453 -0.74694514 0.37328154
-0.90025705 -0.74503219 0.25519845
-0.90030742 -0.74533194 0.14082365
-0.082109027 -0.033737306 8.6689434
-1.6695379 -1.3260075 13.553748
-1.3999971 -1.1226953 8.6511269
-1.2363673 -1.0013793 5.1334848
-1.1584133 -0.94289982 3.5783808
-1.0986556 -0.89679009 2.6662703
-1.0547304 -0.86275864 2.0739524
-1.0207165 -0.83581746 1.6561341
-0.6572035 -0.47157326 13.826323
-1.1777668 -0.9147718 13.865335
-1.3222625 -1.0629741 6.5694199
-1.1972375 -0.96897423 4.2426753
-1.1417464 -0.92766392 3.1055822
-1.0710207 -0.87235516 2.3296194
-1.0294818 -0.83970463 1.8339207
-1.0012615 -0.81783664 1.479807
-0.99226224 -0.8154034 1.3418884
-0.97026497 -0.79816639 1.0954376
-0.95093954 -0.78254133 0.89203662
-0.93465382 -0.76967764 0.72034597
-0.92380351 -0.76100683 0.57189339
-0.92576921 -0.76289064 0.4425481
-0.90197867 -0.74380839 0.31343573
-0.9027319 -0.74442619 0.19799234
-0.97888237 -0.8021155 1.2083125
-0.96156102 -0.78847414 0.98899078
-0.9446137 -0.77484727 0.80356008
-0.9303543 -0.76395649 0.6439597
-0.91996807 -0.7556904 0.5035038
-0.90516633 -0.74378997 0.37328154
-0.89902616 -0.73874122 0.25450778
-0.89904416 -0.7390123 0.14062211
-0.082226291 -0.033450488 8.6689434
-1.6741562 -1.3201717 13.553748
-1.4015176 -1.1158992 8.6364412
-1.2352021 -0.99331605 5.114397
-1.1571388 -0.93516678 3.5645733
-1.0961972 -0.88842595 2.6531031
-1.0533667 -0.85552377 2.0656865
-1.0186538 -0.82820565 1.6484592
-0.6588456 -0.46927628 13.826323
-1.1805305 -0.91032958 13.860364
-1.32007 -1.0536479 6.5403833
-1.1952316 -0.96046573 4.2239046
-1.1398942 -0.91957259 3.0920784
-1.0700035 -0.86533153 2.3210876
-1.0300648 -0.83420956 1.8299305
-1.0014769 -0.81220126 1.4761319
-0.98957592 -0.80742592 1.3348794
-0.97003061 -0.7923125 1.0922991
-0.95042729 -0.77657157 0.88929516
-0.93390536 -0.76360637 0.71802717
-0.92286575 -0.75484246 0.57002032
-0.9210012 -0.75357902 0.43972805
-0.90076882 -0.73754334 0.3125031
-0.90147179 -0.73811561 0.19754526
-0.97877997 -0.79633737 1.204987
-0.96117294 -0.782561 0.98604763
-0.94397014 -0.76882309 0.80102688
-0.92949772 -0.7578364 0.64186168
-0.92260033 -0.75247449 0.5035038
-0.90399098 -0.73755312 0.37210923
-0.8977623 -0.73246807 0.25381708
-0.9016183 -0.73586965 0.14062211
-0.082342558 -0.033163261 8.6689434
-1.6787543 -1.3143198 13.553748
-1.4046056 -1.110369 8.631547
-1.232829 -0.98434204 5.0905371
-1.1558245 -0.92745417 3.5507658
-1.0936936 -0.88009 2.6399357
-1.0541559 -0.85007513 2.0615535
-1.0165503 -0.82061839 1.6407841
-0.66071552 -0.46713993 13.831314
-1.1837009 -0.90620321 13.860364
-1.3188137 -1.0451306 6.5161862
-1.1931808 -0.95198321 4.2051334
-1.1396989 -0.91286635 3.083076
-1.0689502 -0.85832566 2.3125558
-1.0282738 -0.82683265 1.8219506
-0.99902475 -0.80444831 1.4687816
-0.98961723 -0.80172187 1.3313749
-0.96976721 -0.78647006 1.0891607
-0.94988495 -0.77061498 0.8865537
-0.93312591 -0.75754982 0.71570832
-0.92549503 -0.75161648 0.57002032
-0.91990274 -0.74733478 0.43831801
-0.89952624 -0.73129588 0.3115705
-0.90017867 -0.73182297 0.19709818
-0.9786492 -0.79056972 1.2016616
-0.96075529 -0.77666014 0.98310447
-0.94329607 -0.76281279 0.79849374
-0.92860985 -0.75173163 0.63976365
-0.92155159 -0.74627769 0.50186026
-0.91033685 -0.73745263 0.37328154
-0.89261782 -0.72309566 0.25243574
-0.90030015 -0.72957253 0.14042059
-0.082457818 -0.032875631 8.6689434
-1.683332 -1.3084518 13.553748
-1.4060698 -1.1035734 8.6168604
-1.2315782 -0.9763239 5.0714488
-1.1544708 -0.91976231 3.5369582
-1.0930166 -0.87327731 2.6311576
-1.0527233 -0.84287298 2.0532877
-1.0144063 -0.81305599 1.6331092
-0.66234213 -0.46483079 13.831314
-1.186857 -0.90206581 13.860364
-1.3165264 -1.0358579 6.4871497
-1.1924381 -0.94459808 4.1910548
-1.1377666 -0.90481782 3.0695722
-1.067861 -0.85133779 2.3040237
-1.0287988 -0.82135832 1.8179604
-0.99917871 -0.79883927 1.4651064
-0.98963082 -0.79602748 1.3278702
-0.96947479 -0.78063905 1.0860223
-0.94931263 -0.76467156 0.88381225
-0.93231565 -0.75150806 0.71338952
-0.92450416 -0.7454713 0.5681473
-0.91503817 -0.7380957 0.43549791
-0.89825106 -0.72506607 0.31063786
-0.89885265 -0.72554839 0.1966511
-0.97557741 -0.78247672 1.1950105
-0.95715582 -0.7682417 0.97721815
-0.94259161 -0.75681657 0.79596055
-0.92415309 -0.7427991 0.63556755
-0.924151 -0.7430563 0.50186026
-0.90533042 -0.72817779 0.3709369
-0.89127767 -0.71687174 0.25174505
-0.89894885 -0.72329366 0.14021905
-0.08253061 -0.032573976 8.6639433
-1.6878891 -1.302568 13.553748
-1.4083068 -1.0974071 8.60707
-1.2291135 -0.96740353 5.0475893
-1.1546097 -0.91330308 3.5277531
-1.0923054 -0.86647999 2.6223795
-1.0512533 -0.83569115 2.0450218
-1.0147301 -0.80751443 1.6292717
-0.66419774 -0.4626807 13.836306
-1.1899986 -0.89791745 13.860364
-1.3141904 -1.026614 6.4581132
-1.1903021 -0.93616319 4.1722836
-1.1375008 -0.89814293 3.06057
-1.0667362 -0.84436798 2.2954919
-1.0269368 -0.81401885 1.8099804
-0.99665022 -0.79113126 1.457756
-0.98682994 -0.78811735 1.3208612
-0.9691537 -0.77481979 1.0828838
-0.94871044 -0.75874168 0.88107073
-0.93147463 -0.74548119 0.71107078
-0.9234817 -0.73934239 0.56627429
-0.91386473 -0.73189837 0.43408787
-0.89694339 -0.71885419 0.30970526
-0.89749384 -0.71929204 0.19620402
-0.97538197 -0.77674073 1.1916851
-0.95667052 -0.7623769 0.97427499
-0.93848592 -0.74814761 0.79089421
-0.92319298 -0.73673791 0.63346946
-0.92304856 -0.73687977 0.50021678
-0.90406853 -0.72198009 0.3697646
-0.88990498 -0.71066612 0.25105438
-0.89756483 -0.71703309 0.14001752
-0.082602322 -0.032272216 8.6589432
-1.6924256 -1.2966681 13.553748
-1.4097126 -1.0906156 8.5923843
-1.2277777 -0.95943117 5.0285015
-1.1531808 -0.90564752 3.5139456
-1.0896786 -0.8582167 2.6092124
-1.0519551 -0.83027321 2.040889
-1.0125127 -0.79999346 1.6215967
-0.6658088 -0.46035939 13.836306
-1.192699 -0.8934387 13.855393
-1.3118058 -1.017399 6.4290767
-1.1894821 -0.92881674 4.1582055
-1.135489 -0.89013797 3.0470665
-1.0655758 -0.83741653 2.2869601
-1.025036 -0.80670238 1.8020003
-0.99674314 -0.78554916 1.4540808
-0.98678064 -0.78245229 1.3173567
-0.96575499 -0.76659244 1.0766069
-0.94807857 -0.75282526 0.87832928
-0.93060291 -0.73946935 0.70875198
-0.92242765 -0.73322958 0.56440127
-0.91265917 -0.72571832 0.43267787
-0.8956033 -0.71266031 0.30877262
-0.89610231 -0.71305406 0.19575694
-0.97515839 -0.77101564 1.1883595
-0.95615608 -0.75652504 0.97133183
-0.93771154 -0.74219179 0.78836101
-0.92220169 -0.73069233 0.63137144
-0.92191446 -0.7307201 0.49857324
-0.91420066 -0.72485954 0.37210923
-0.89238024 -0.70755541 0.25105438
-0.89614803 -0.71079105 0.13981599
-0.082714468 -0.031983685 8.6589432
-1.69756 -1.2912229 13.558688
-1.4110883 -1.0838277 8.5776987
-1.2264014 -0.95148003 5.0094137
-1.1532536 -0.89921421 3.5047405
-1.0888942 -0.85145748 2.6004343
-1.0504167 -0.82312506 2.0326231
-1.0127771 -0.79447609 1.6177592
-0.66764987 -0.45819551 13.841297
-1.1958103 -0.88926989 13.855393
-1.3093731 -1.008213 6.4000401
-1.1872613 -0.92043024 4.1394343
-1.133435 -0.88215804 3.0335627
-1.0643799 -0.83048338 2.2784283
-1.0230967 -0.79940909 1.7940203
-0.99680907 -0.77997601 1.4504057
-0.9839015 -0.77459121 1.3103476
-0.96536791 -0.76080745 1.0734684
-0.94741678 -0.74692261 0.87558782
-0.93317848 -0.73621643 0.70875198
-0.92134249 -0.72713339 0.56252825
-0.90765661 -0.71658325 0.42985779
-0.89423108 -0.7064845 0.30784002
-0.89467829 -0.70683455 0.19530986
-0.97490668 -0.76530147 1.185034
-0.95561236 -0.75068593 0.96838868
-0.93690693 -0.73625058 0.78582788
-0.92117959 -0.72466278 0.62927336
-0.92074859 -0.72457743 0.49692973
-0.89095354 -0.70137304 0.25036371
-0.89469874 -0.70456767 0.13961446
-0.082825609 -0.031694762 8.6589432
-1.7020569 -1.2852894 13.558688
-1.411624 -1.0764264 8.5581179
-1.2249848 -0.94355029 4.9903255
-1.1517506 -0.89159572 3.4909327
-1.088076 -0.84471422 2.5916562
-1.0488414 -0.8159976 2.0243571
-1.0104864 -0.7869972 1.6100842
-0.66924524 -0.45586219 13.841297
-1.1984782 -0.88477385 13.850421
-1.307891 -0.99981993 6.3758426
-1.1863642 -0.91312295 4.1253562
-1.1313394 -0.87420344 3.0200591
-1.0631486 -0.82356882 2.2698965
-1.021119 -0.79213929 1.7860402
-0.99684829 -0.77441198 1.4467305
-0.98378944 -0.76895595 1.306843
-0.96495229 -0.75503463 1.07033
-0.94672555 -0.74103373 0.87284636
-0.93225527 -0.73022306 0.70643318
-0.92022586 -0.7210536 0.56065518
-0.91015244 -0.71341056 0.42985779
-0.89669168 -0.70335877 0.30784002
-0.89322174 -0.7006337 0.19486278
-0.97168213 -0.75730354 1.1783831
-0.95503962 -0.74485993 0.96544552
-0.93267369 -0.72767246 0.78076148
-0.92012662 -0.71864927 0.62717533
-0.91955107 -0.71845168 0.49528623
-0.89339638 -0.69825876 0.25036371
-0.89321691 -0.69836313 0.13941292
-0.082935736 -0.031405453 8.6589432
-1.706533 -1.2793404 13.558688
-1.4121252 -1.0690345 8.538537
-1.2235274 -0.93564188 4.9712372
-1.1502085 -0.88399881 3.4771254
-1.0872239 -0.83798707 2.5828779
-1.045002 -0.80717134 2.0119581
-1.0106916 -0.78150469 1.6062467
-0.67107177 -0.45368472 13.846289
-1.2011293 -0.88027006 13.845449
-1.3053651 -0.99068975 6.3468065
-1.1840594 -0.90478563 4.1065855
-1.1274748 -0.86494923 3.0020542
-1.0639493 -0.81826288 2.2656305
-1.0191032 -0.78489304 1.7780602
-0.99686092 -0.7688573 1.4430554
-0.98083252 -0.76114452 1.2998339
-0.96143425 -0.74688613 1.0640531
-0.94600475 -0.7351588 0.87010491
-0.93130159 -0.72424507 0.70411438
-0.91907805 -0.7149905 0.55878216
-0.90885139 -0.70728314 0.42844775
-0.89526582 -0.69720626 0.30690739
-0.89173293 -0.69445175 0.1944157
-0.97136664 -0.75162226 1.1750575
-0.95443785 -0.73904711 0.96250236
-0.93180001 -0.72177267 0.77822834
-0.92262954 -0.71543306 0.62717533
-0.91832203 -0.71234322 0.49364269
-0.89870036 -0.69736779 0.36507532
-0.89582831 -0.69513595 0.25036371
-0.89170271 -0.69217753 0.1392114
-0.083086543 -0.031128656 8.6639433
-1.7109883 -1.2733756 13.558688
-1.4109643 -1.0604289 8.5091658
-1.22203 -0.92775542 4.9521494
-1.1501808 -0.87760854 3.4679203
-1.0844359 -0.82982075 2.5697107
-1.0433469 -0.80009407 2.0036924
-1.0108708 -0.77602023 1.6024091
-0.67217147 -0.45101836 13.836306
-1.2041948 -0.87607193 13.845449
-1.3037953 -0.98234576 6.3226094
-1.1830857 -0.89751834 4.0925069
-1.1252913 -0.85705167 2.9885504
-1.0626533 -0.81137878 2.2570984
-1.0170492 -0.77767056 1.7700801
-0.99415511 -0.76125097 1.4357051
-0.98065835 -0.75553983 1.2963293
-0.9609533 -0.74114853 1.0609146
-0.94525445 -0.729298 0.86736345
-0.933824 -0.72098982 0.70411438
-0.91789919 -0.70894426 0.55690914
-0.90751863 -0.70117348 0.42703772
-0.89380789 -0.69107229 0.30597478
-0.89021188 -0.68828869 0.19396862
-0.97102332 -0.74595249 1.1717321
-0.95380718 -0.73324758 0.95955914
-0.93431383 -0.71851575 0.77822834
-0.92152488 -0.70943958 0.62507725
-0.92080301 -0.70913333 0.49364269
-0.89727867 -0.69126016 0.36390302
-0.89824933 -0.69200474 0.25036371
-0.89411342 -0.68906069 0.1392114
-0.083194695 -0.030838441 8.6639433
-1.7154227 -1.2673954 13.558688
-1.4105762 -1.0524533 8.4846888
-1.2193005 -0.9189924 4.9282899
-1.1485651 -0.8700496 3.4541125
-1.0835116 -0.82313305 2.5609324
-1.0416553 -0.79303831 1.9954264
-1.0110241 -0.77054411 1.5985717
-0.67350125 -0.44850954 13.831314
-1.2068132 -0.87155116 13.840478
-1.3021833 -0.97402471 6.2984118
-1.1820757 -0.89026904 4.0784287
-1.1230665 -0.84917986 2.9750469
-1.0613222 -0.80451381 2.2485666
-1.0173575 -0.77229387 1.7660903
-0.99410743 -0.75572455 1.4320298
-0.98045695 -0.74994546 1.2928247
-0.96044409 -0.73542345 1.0577762
-0.94447494 -0.72345138 0.864622
-0.93281925 -0.71503091 0.70179558
-0.92036825 -0.70573586 0.55690914
-0.90996063 -0.69800133 0.42703772
-0.89231807 -0.68495703 0.30504215
-0.892609 -0.68517709 0.19396862
-0.9706524 -0.74029422 1.1684066
-0.95314777 -0.72746152 0.95661598
-0.93338978 -0.71263403 0.77569515
-0.92038971 -0.70346254 0.62297922
-0.91952139 -0.70304668 0.49199918
-0.90354693 -0.69107676 0.36507532
-0.89672589 -0.68585652 0.24967301
-0.8925454 -0.68289965 0.13900986
-0.08334361 -0.030560454 8.6689434
-1.7198364 -1.2613996 13.558688
-1.4085134 -1.0432814 8.4504232
-1.2165246 -0.91025978 4.9044299
-1.1469107 -0.86251283 3.4403052
-1.082554 -0.81646186 2.5521543
-1.042172 -0.78770065 1.9912934
-1.0111516 -0.7650764 1.5947342
-0.67458069 -0.44583812 13.821331
-1.2102815 -0.86764383 13.845449
-1.300529 -0.96572697 6.2742147
-1.1810297 -0.88303763 4.0643501
-1.1208007 -0.84133416 2.9615433
-1.0599561 -0.79766798 2.2400348
-1.015234 -0.76511103 1.7581102
-0.99403328 -0.75020766 1.4283547
-0.98022854 -0.74436188 1.2893202
-0.95990664 -0.72971094 1.0546377
-0.94366604 -0.71761918 0.86188054
-0.93178433 -0.70908791 0.69947678
-0.91913742 -0.69971085 0.55503613
-0.90857512 -0.69191444 0.42562771
-0.89079648 -0.6788606 0.30410954
-0.89103436 -0.67903858 0.19352154
-0.97025377 -0.73464769 1.165081
-0.95245951 -0.72168893 0.95367283
-0.93243611 -0.70676768 0.77316189
-0.91560864 -0.69475883 0.61878312
-0.92196989 -0.69983268 0.49199918
-0.90595376 -0.6879186 0.36507532
-0.89911449 -0.68272221 0.24967301
-0.89492375 -0.67977995 0.13900986
-0.083449781 -0.030269345 8.6689434
-1.724229 -1.2553887 13.558688
-1.4072243 -1.03474 8.421052
-1.2137028 -0.9015578 4.8805699
-1.1467832 -0.85616672 3.4311001
-1.0815628 -0.80980736 2.5433762
-1.0426644 -0.78236926 1.9871606
-1.0086904 -0.75769228 1.5870591
-0.67516643 -0.44284856 13.801364
-1.2133027 -0.86341381 13.845449
-1.2988328 -0.95745277 6.2500176
-1.1799475 -0.87582439 4.0502715
-1.1184937 -0.83351457 2.9480395
-1.0585552 -0.79084158 2.231503
-1.0154858 -0.75975758 1.7541201
-0.99121946 -0.74266785 1.4210044
-0.97997308 -0.73878896 1.2858157
-0.95934111 -0.72401112 1.0514992
-0.942828 -0.71180141 0.85913903
-0.93071926 -0.70316082 0.69715798
-0.92157423 -0.69649822 0.55503613
-0.90715832 -0.68584579 0.42421767
-0.88924342 -0.67278332 0.30317691
-0.89339924 -0.67592418 0.19352154
-0.96982759 -0.72901309 1.1617556
-0.95174271 -0.71593016 0.95072967
-0.93489754 -0.70350856 0.77316189
-0.91440314 -0.68882787 0.61668509
-0.92440712 -0.69661009 0.49199918
-0.90446812 -0.68182617 0.36390302
-0.89753777 -0.67659867 0.24898234
-0.89330232 -0.67364389 0.13880834
-0.083513066 -0.029965553 8.6639433
-1.7286006 -1.2493623 13.558688
-1.4058926 -1.0262203 8.3916798
-1.2120365 -0.89377254 4.8614817
-1.1450558 -0.84866893 3.4172924
-1.0805384 -0.80316979 2.5345981
-1.0431322 -0.77704394 1.9830275
-1.0087595 -0.75225079 1.5832217
-0.67767674 -0.44111788 13.821331
-1.2167447 -0.85948074 13.850421
-1.2970948 -0.9492023 6.225821
-1.1774403 -0.8676061 4.0315008
-1.1178961 -0.82701606 2.9390371
-1.0571196 -0.78403479 2.222971
-1.0132935 -0.75261503 1.74614
-0.99108565 -0.73718023 1.4173292
-0.97969073 -0.73322695 1.2823112
-0.95874745 -0.71832424 1.0483608
-0.94196087 -0.70599836 0.85639757
-0.92962426 -0.69724977 0.69483918
-0.9202916 -0.69049489 0.55316305
-0.90954685 -0.68267506 0.42421767
-0.89158642 -0.66967517 0.30317691
-0.89177126 -0.66981077 0.19307446
-0.96937388 -0.72339028 1.15843
-0.95099729 -0.71018517 0.94778651
-0.93389392 -0.69766098 0.77062875
-0.91316736 -0.68291372 0.61458701
-0.92683315 -0.6933791 0.49199918
-0.90295112 -0.67575252 0.36273071
-0.89592934 -0.67049444 0.24829166
-0.89564836 -0.67052156 0.13880834
-0.083617158 -0.029673856 8.6639433
-1.7329512 -1.2433208 13.558688
-1.4036942 -1.0171252 8.3574133
-1.2103308 -0.88600999 4.8423939
-1.1448638 -0.84235138 3.4080875
-1.079481 -0.79654938 2.5258198
-1.0458382 -0.77339798 1.9830275
-1.008803 -0.74681789 1.5793842
-0.67921245 -0.43874964 13.821331
-1.2197374 -0.85522825 13.850421
-1.2942979 -0.94023681 6.196784
-1.1762829 -0.86043465 4.0174227
-1.1172668 -0.8205319 2.9300346
-1.0556494 -0.77724755 2.2144392
-1.0134892 -0.74728543 1.7421501
-0.99092555 -0.73170251 1.4136541
-0.97651887 -0.7255491 1.2753021
-0.95812583 -0.71265036 1.0452224
-0.94106483 -0.70020998 0.85365611
-0.9284994 -0.69135505 0.69252038
-0.91897839 -0.68450898 0.55129004
-0.90807754 -0.67662978 0.42280763
-0.88998061 -0.6636225 0.30224431
-0.89410394 -0.66669387 0.19307446
-0.96889287 -0.71777964 1.1551045
-0.95022339 -0.70445412 0.94484335
-0.93286091 -0.69182903 0.76809555
-0.91190153 -0.67701662 0.61248899
-0.92545676 -0.68732411 0.49035567
-0.90140277 -0.66969776 0.36155838
-0.89826441 -0.66736299 0.24829166
-0.89798343 -0.66739106 0.13880834
-0.08372023 -0.029381795 8.6639433
-1.7366476 -1.2368135 13.553748
-1.4014493 -1.008058 8.3231468
-1.2097933 -0.87914753 4.8280783
-1.1430641 -0.83489352 3.39428
-1.0783906 -0.78994608 2.5170417
-1.0462631 -0.76807749 1.9788946
-1.006238 -0.73949593 1.5717092
-0.68098307 -0.4365316 13.826323
-1.2227153 -0.85096538 13.850421
-1.2924742 -0.93203765 6.1725869
-1.1750898 -0.85328192 4.0033445
-1.1166058 -0.81406224 2.9210322
-1.0541447 -0.77048028 2.2059073
-1.0160915 -0.74374312 1.7421501
-0.98800498 -0.72423077 1.4063038
-0.97617555 -0.72001928 1.2717975
-0.95747638 -0.70698959 1.0420839
-0.94013977 -0.69443643 0.85091466
-0.92734468 -0.68547666 0.69020158
-0.91763443 -0.67854065 0.54941696
-0.90657723 -0.6706031 0.4213976
-0.89229167 -0.66051185 0.30224431
-0.89242303 -0.66060585 0.19262739
-0.96838444 -0.71218115 1.1517791
-0.94942111 -0.69873708 0.94190019
-0.9317987 -0.68601286 0.76556236
-0.91060573 -0.6711368 0.6103909
-0.92785031 -0.68408948 0.49035567
-0.89982325 -0.6636622 0.36038607
-0.89660305 -0.66128397 0.24760097
-0.89628738 -0.66128641 0.1386068
-0.08382228 -0.02908938 8.6639433
-1.7403197 -1.2302954 13.548809
-1.3999873 -0.99961054 8.2937756
-1.2092226 -0.87229961 4.8137617
-1.142808 -0.82860494 3.3850746
-1.0772672 -0.78336012 2.5082636
-1.0466635 -0.7627635 1.9747616
-1.0062238 -0.73409009 1.5678717
-0.68274641 -0.43430644 13.831314
-1.2252396 -0.84638935 13.845449
-1.2906088 -0.9238627 6.1483898
-1.1724613 -0.84513921 3.9845734
-1.1141497 -0.80633104 2.9075289
-1.0526057 -0.76373285 2.1973755
-1.0162436 -0.73842055 1.73816
-0.98778564 -0.7187829 1.4026285
-0.97580546 -0.71450061 1.268293
-0.95993835 -0.70364308 1.0420839
-0.93918604 -0.68867803 0.8481732
-0.92258883 -0.6769942 0.68556398
-0.91999745 -0.67533338 0.54941696
-0.90504611 -0.66459531 0.41998756
-0.89063346 -0.65448427 0.30131167
-0.89071059 -0.65453774 0.19218032
-0.96784878 -0.706595 1.1484535
-0.94859058 -0.69303435 0.93895704
-0.93070716 -0.6802125 0.76302922
-0.90928012 -0.66527432 0.60829288
-0.92261136 -0.67526865 0.48706865
-0.90213436 -0.66051716 0.36038607
-0.89491028 -0.6552248 0.2469103
-0.89859027 -0.65815371 0.1386068
-0.08392331 -0.028796608 8.6639433
-1.7439677 -1.2237669 13.54387
-1.3968217 -0.99000818 8.2546139
-1.2074053 -0.86459762 4.7946739
-1.1409361 -0.82118732 3.3712673
-1.0761111 -0.77679169 2.4994855
-1.0447595 -0.75580674 1.9664958
-1.006184 -0.72869331 1.5640341
-0.6845026 -0.43207437 13.836306
-1.2281866 -0.8421073 13.845449
-1.2887022 -0.91571224 6.1241927
-1.1711938 -0.83802915 3.9704952
-1.1134214 -0.79989702 2.8985264
-1.0510325 -0.75700575 2.1888437
-1.0163711 -0.73310614 1.7341701
-0.98479223 -0.71136051 1.3952782
-0.97540879 -0.70899343 1.2647884
-0.95924133 -0.69799793 1.0389454
-0.93820357 -0.68293476 0.84543175
-0.9213658 -0.67116153 0.68324518
-0.91860253 -0.66938782 0.54754394
-0.90736037 -0.66143203 0.41998756
-0.89291263 -0.65137142 0.30131167
-0.88896668 -0.64848977 0.19173324
-0.96728599 -0.70102131 1.145128
-0.94773185 -0.68734598 0.93601388
-0.92609739 -0.67189682 0.75796282
-0.91159678 -0.66209632 0.60829288
-0.92114258 -0.66926843 0.48542514
-0.90050268 -0.65450644 0.35921374
-0.89318627 -0.64918566 0.24621962
-0.89684141 -0.65207511 0.13840528
-0.084023319 -0.028503487 8.6639433
-1.7475911 -1.2172278 13.53893
-1.3944391 -0.98102599 8.2203474
-1.205549 -0.85691887 4.7755861
-1.1390264 -0.81379288 3.3574595
-1.0749223 -0.77024096 2.4907072
-1.0451057 -0.75051397 1.9623629
-1.0061189 -0.72330576 1.5601966
-0.68600667 -0.42968237 13.836306
-1.2306778 -0.83751518 13.840478
-1.2867546 -0.90758634 6.0999956
-1.1698908 -0.83093828 3.9564166
-1.1108893 -0.7922141 2.8850226
-1.0515471 -0.75181568 2.1845777
-1.0164738 -0.72779971 1.7301799
-0.98451412 -0.70594323 1.3916031
-0.97787768 -0.70558429 1.2647884
-0.9585166 -0.69236618 1.035807
-0.93719244 -0.6772067 0.84269029
-0.92011327 -0.66534561 0.68092638
-0.91717726 -0.66346014 0.54567093
-0.90577739 -0.6554485 0.41857755
-0.89120221 -0.64536947 0.30037907
-0.89122486 -0.6453827 0.19173324
-0.9697271 -0.6976406 1.145128
-0.94684494 -0.6816721 0.93307072
-0.92843705 -0.66866004 0.75796282
-0.91022086 -0.65625596 0.60619479
-0.91964316 -0.66328669 0.48378164
-0.89884001 -0.64851516 0.35804144
-0.89143097 -0.64316642 0.24552894
-0.89506114 -0.64601672 0.13820374
-0.0841223 -0.028210014 8.6639433
-1.7511902 -1.2106785 13.533991
-1.390341 -0.97090673 8.1762905
-1.2048736 -0.85012418 4.76127
-1.1386728 -0.80755186 3.3482547
-1.0737009 -0.763708 2.4819291
-1.0431361 -0.74359471 1.9540969
-1.0060284 -0.71792758 1.5563592
-0.68750238 -0.42728516 13.836306
-1.2335938 -0.83321416 13.840478
-1.284766 -0.89948529 6.0757985
-1.1685528 -0.82386678 3.9423382
-1.1083171 -0.78455848 2.8715191
-1.0520381 -0.74663115 2.1803117
-1.0140958 -0.72075605 1.7221999
-0.98421025 -0.70053649 1.3879279
-0.97743535 -0.70008999 1.2612839
-0.95776427 -0.68674815 1.0326686
-0.93615288 -0.67149407 0.83994877
-0.91883141 -0.65954673 0.67860758
-0.91572189 -0.65755057 0.54379785
-0.90416366 -0.64948416 0.41716751
-0.88946086 -0.63938749 0.29944643
-0.8894285 -0.63936102 0.19128615
-0.96911782 -0.69208157 1.1418025
-0.94593 -0.67601269 0.93012756
-0.92725855 -0.66290814 0.75542969
-0.9125061 -0.65307474 0.60619479
-0.91811329 -0.6573236 0.48213813
-0.90109831 -0.64537364 0.35804144
-0.88964462 -0.63716739 0.24483825
-0.89731067 -0.64288849 0.13820374
-0.08422026 -0.027916202 8.6639433
-1.7554055 -1.2045583 13.533991
-1.3870264 -0.96140814 8.1371288
-1.2041655 -0.84334475 4.7469544
-1.1382897 -0.80132329 3.3390496
-1.0724471 -0.75719291 2.473151
-1.0434281 -0.73832357 1.9499639
-1.0059128 -0.71255898 1.5525217
-0.68898964 -0.42488271 13.836306
-1.2364948 -0.82890308 13.840478
-1.2827364 -0.89140916 6.0516014
-1.1671797 -0.81681496 3.9282601
-1.1057051 -0.77693069 2.8580153
-1.0503734 -0.7399506 2.1717799
-1.0141431 -0.71547478 1.7182097
-0.98388082 -0.69514066 1.3842528
-0.9769665 -0.6946075 1.2577794
-0.95698446 -0.68114376 1.02953
-0.93508476 -0.66579705 0.83720732
-0.9175204 -0.65376484 0.67628878
-0.91423643 -0.65165931 0.54192483
-0.9064253 -0.6463241 0.41716751
-0.8876887 -0.63342553 0.29851383
-0.89165491 -0.63625246 0.19128615
-0.9684816 -0.6865353 1.138477
-0.94498724 -0.67036808 0.9271844
-0.92956686 -0.65966731 0.75542969
-0.9147802 -0.64988548 0.60619479
-0.91655302 -0.65137929 0.48049462
-0.89938402 -0.63940793 0.35686913
-0.8878271 -0.63118869 0.24414757
-0.89547795 -0.63685685 0.1380022
-0.084317192 -0.027622048 8.6639433
-1.7595996 -1.1984234 13.533991
-1.3836625 -0.95194459 8.0979671
-1.2034246 -0.83658051 4.7326379
-1.1378769 -0.79510731 3.3298445
-1.0731221 -0.75207031 2.4687617
-1.0413933 -0.73144227 1.9416981
-1.0057719 -0.70719981 1.5486841
-0.69046861 -0.4224751 13.836306
-1.2398245 -0.82487708 13.845449
-1.2796316 -0.88264471 6.0225649
-1.1657717 -0.80978251 3.9141815
-1.1048392 -0.77057588 2.8490129
-1.0508125 -0.7347852 2.1675138
-1.0141661 -0.71020222 1.7142198
-0.98352557 -0.68975556 1.3805776
-0.97647142 -0.6891368 1.2542748
-0.95617729 -0.67555326 1.0263916
-0.93398839 -0.6601156 0.83446586
-0.91618013 -0.64800018 0.67396998
-0.9127211 -0.64578652 0.54005182
-0.90476036 -0.64038479 0.41575748
-0.88588578 -0.62748379 0.2975812
-0.88980657 -0.63025773 0.19083907
-0.96781856 -0.68100196 1.1351515
-0.94401658 -0.66473842 0.92424124
-0.9318639 -0.6564185 0.75542969
-0.91333395 -0.64407277 0.60409671
-0.91882116 -0.64817595 0.48049462
-0.89763916 -0.63346207 0.3556968
-0.89002502 -0.62808573 0.24414757
-0.89361411 -0.6308459 0.13780068
-0.084455326 -0.027338551 8.6689434
-1.7637722 -1.192274 13.533991
-1.3802494 -0.94251621 8.0588045
-1.2026515 -0.82983184 4.7183223
-1.1374345 -0.78890395 3.3206394
-1.0718086 -0.74558479 2.4599836
-1.0393231 -0.72458422 1.9334321
-1.0029775 -0.70001608 1.5410092
-0.69169211 -0.41991284 13.831314
-1.2426964 -0.82054424 13.845449
-1.2775184 -0.8746227 5.9983678
-1.1643288 -0.80277008 3.9001033
-1.1021522 -0.76299763 2.8355093
-1.0512284 -0.72962576 2.1632481
-1.0116904 -0.7032184 1.7062398
-0.98314476 -0.68438143 1.3769025
-0.97595 -0.68367803 1.2507702
-0.95215595 -0.66774195 1.0201148
-0.93286389 -0.65445006 0.83172441
-0.9148109 -0.64225292 0.67165118
-0.9149698 -0.64259654 0.54005182
-0.90306497 -0.63446504 0.41434744
-0.88405216 -0.6215623 0.29664856
-0.89200115 -0.62714791 0.19083907
-0.96712869 -0.67548168 1.131826
-0.9463312 -0.66143912 0.92424124
-0.93414956 -0.6531617 0.75542969
-0.91557664 -0.64088076 0.60409671
-0.92107809 -0.64496475 0.48049462
-0.89984483 -0.6303249 0.3556968
-0.89221197 -0.62497514 0.24414757
-0.89581078 -0.6277228 0.13780068
-0.084550247 -0.027043581 8.6689434
-1.7685684 -1.1865427 13.53893
-1.3784733 -0.93426561 8.0294333
-1.2018459 -0.82309872 4.7040062
-1.1369628 -0.78271329 3.3114345
-1.0724338 -0.74047834 2.4555948
-1.034904 -0.7161485 1.9210334
-1.00278 -0.69468564 1.5371716
-0.69315362 -0.41749585 13.831314
-1.2451071 -0.81590933 13.840478
-1.2743253 -0.86591995 5.9693313
-1.1642756 -0.7967521 3.890718
-1.1012204 -0.75668031 2.8265069
-1.0494733 -0.72299284 2.1547163
-1.0116584 -0.69797146 1.7022496
-0.98273855 -0.6790185 1.3732272
-0.97540259 -0.67823142 1.2472657
-0.95128626 -0.6621905 1.0169762
-0.93171108 -0.64880031 0.82898289
-0.91341281 -0.63652313 0.66933239
-0.91340417 -0.63674772 0.5381788
-0.90133947 -0.62856501 0.4129374
-0.88218808 -0.61566138 0.29571593
-0.89010102 -0.62118042 0.19039199
-0.96641207 -0.66997445 1.1285006
-0.94531322 -0.65582788 0.92129809
-0.93288231 -0.64743918 0.75289649
-0.91408086 -0.6350913 0.60199869
-0.91944629 -0.63905072 0.47885111
-0.89804882 -0.62440526 0.35452449
-0.89438814 -0.62185693 0.24414757
-0.89389509 -0.62173933 0.13759914
-0.08460182 -0.026737584 8.6639433
-1.7726996 -1.1803621 13.53893
-1.3766565 -0.92603898 8.000062
-1.201008 -0.81638145 4.6896906
-1.1364617 -0.77653569 3.3022294
-1.0710605 -0.73402274 2.4468162
-1.0327581 -0.70934552 1.9127675
-1.0025576 -0.68936521 1.5333341
-0.69460672 -0.41507372 13.831314
-1.2479475 -0.81155819 13.840478
-1.2721292 -0.85795295 5.9451342
-1.1627667 -0.78977466 3.8766394
-1.0984592 -0.74915242 2.8130033
-1.0498376 -0.71785319 2.1504502
-1.0091162 -0.6910311 1.6942697
-0.98230684 -0.6736666 1.3695521
-0.97482896 -0.67279691 1.2437612
-0.95038962 -0.65665346 1.0138377
-0.93053025 -0.64316666 0.82624143
-0.91562915 -0.63333082 0.66933239
-0.91180897 -0.63091767 0.53630573
-0.90352803 -0.62541491 0.4129374
-0.88029367 -0.60978109 0.29478332
-0.88817012 -0.6152339 0.18994491
-0.96259284 -0.66236413 1.1218495
-0.94426757 -0.65023178 0.91835493
-0.93158656 -0.64173347 0.75036329
-0.91255593 -0.6293202 0.5999006
-0.92167139 -0.63583732 0.47885111
-0.89622253 -0.61850595 0.35335216
-0.89247763 -0.61591846 0.24345689
-0.89605993 -0.61861527 0.13759914
-0.084694639 -0.026442105 8.6639433
-1.776809 -1.1741669 13.53893
-1.3747991 -0.91783649 7.9706907
-1.2001377 -0.80967999 4.6753745
-1.1359315 -0.77037114 3.2930243
-1.0696554 -0.72758573 2.4380381
-1.0305774 -0.70256627 1.9045017
-1.0023103 -0.68405467 1.5294967
-0.69605142 -0.41264656 13.831314
-1.2503248 -0.80690813 13.835506
-1.2698929 -0.85001189 5.9209371
-1.1626546 -0.78378206 3.8672543
-1.0974618 -0.74287313 2.8040009
-1.0480208 -0.71125537 2.1419184
-1.0090301 -0.6858108 1.6902797
-0.98184973 -0.66832608 1.3658769
-0.97128707 -0.66535932 1.236752
-0.94946587 -0.65113068 1.0106993
-0.92932165 -0.63754922 0.82349998
-0.91418231 -0.62762374 0.66701359
-0.9101842 -0.62510651 0.53443271
-0.90175176 -0.61954075 0.4115274
-0.87836903 -0.60392153 0.29385069
-0.88620871 -0.60930848 0.18949783
-0.95873231 -0.65478861 1.1151985
-0.94319439 -0.64465094 0.91541177
-0.93026239 -0.63604486 0.74783015
-0.9110018 -0.62356746 0.59780258
-0.91998887 -0.62994832 0.4772076
-0.89837605 -0.61537379 0.35335216
-0.89462215 -0.61279935 0.24345689
-0.89409256 -0.61265969 0.13739762
-0.084744051 -0.026135905 8.6589432
-1.7808968 -1.1679577 13.53893
-1.3729013 -0.90965825 7.9413185
-1.1992356 -0.80299461 4.6610584
-1.1337514 -0.76312894 3.2792168
-1.0682186 -0.72116756 2.42926
-1.028362 -0.69581085 1.8962357
-0.99938434 -0.67695689 1.5218216
-0.69723862 -0.41006839 13.826323
-1.2531338 -0.80253875 13.835506
-1.267617 -0.84209687 5.89674
-1.1610804 -0.77684039 3.8531759
-1.0946269 -0.73539615 2.7904971
-1.0461708 -0.70467895 2.1333864
-1.0064217 -0.67891449 1.6822997
-0.98136741 -0.66299701 1.3622017
-0.97065449 -0.65995985 1.2332475
-0.9485153 -0.64562243 1.0075608
-0.92808515 -0.63194811 0.82075852
-0.91636753 -0.62442881 0.66701359
-0.91236067 -0.62192559 0.53443271
-0.90390885 -0.61638933 0.4115274
-0.88047177 -0.60085171 0.29385069
-0.88421673 -0.60340422 0.18905075
-0.95483077 -0.64724815 1.1085476
-0.94209391 -0.63908571 0.91246861
-0.92890984 -0.63037312 0.74529696
-0.90941888 -0.61783332 0.5957045
-0.91827667 -0.62407887 0.47556409
-0.89649898 -0.60950136 0.35217986
-0.89675575 -0.60967284 0.24345689
-0.89622569 -0.60953498 0.13739762
-0.084834762 -0.025839932 8.6589432
-1.7843115 -1.1613103 13.533991
-1.3709633 -0.9015044 7.9119477
-1.197058 -0.79549944 4.6419706
-1.133159 -0.75699657 3.2700117
-1.0667499 -0.71476841 2.4204819
-1.0261121 -0.68907958 1.8879696
-0.99908108 -0.67167604 1.517984
-0.69866574 -0.40763205 13.826323
-1.2554777 -0.79787385 13.830535
-1.2653011 -0.83420807 5.8725429
-1.1609097 -0.77087384 3.8437903
-1.0935646 -0.7291556 2.7814946
-1.0442878 -0.69812423 2.1248546
-1.0062814 -0.67372096 1.6783097
-0.98085982 -0.65767938 1.3585266
-0.96703976 -0.65257806 1.2262385
-0.94753778 -0.64012873 1.0044224
-0.92682087 -0.62636328 0.81801701
-0.91487223 -0.61874467 0.66469479
-0.91068643 -0.61613935 0.53255969
-0.9020822 -0.61054152 0.41011736
-0.87849665 -0.59501994 0.29291809
-0.88631761 -0.60031408 0.18905075
-0.95398623 -0.64182717 1.105222
-0.94096607 -0.63353598 0.90952545
-0.92395359 -0.62231064 0.74023062
-0.90780687 -0.61211783 0.59360647
-0.9204495 -0.6208697 0.47556409
-0.89459187 -0.6036495 0.35100752
-0.89887846 -0.60653883 0.24345689
-0.89420706 -0.60360771 0.13719608
-0.084924445 -0.025543647 8.6589432
-1.7877016 -1.1546533 13.529052
-1.3689852 -0.89337546 7.8825765
-1.1960889 -0.78885096 4.6276546
-1.1325378 -0.75087762 3.2608066
-1.0652497 -0.70838833 2.4117036
-1.0261697 -0.68393308 1.8838367
-0.99608707 -0.66462678 1.5103091
-0.69983435 -0.40504646 13.821331
-1.258255 -0.79348654 13.830535
-1.2639977 -0.82703394 5.8531852
-1.1592704 -0.76396847 3.8297122
-1.0924722 -0.7229315 2.7724922
-1.0423719 -0.69159126 2.1163228
-1.0036073 -0.66686922 1.6703296
-0.98314959 -0.65425158 1.3585266
-0.96338558 -0.64522976 1.2192293
-0.94653356 -0.63464975 1.0012839
-0.92552894 -0.62079513 0.81527555
-0.91334832 -0.61307859 0.66237599
-0.9128316 -0.61295676 0.53255969
-0.90420789 -0.60738897 0.41011736
-0.88056821 -0.59194976 0.29291809
-0.88427472 -0.59443825 0.18860367
-0.95001042 -0.63434666 1.0985711
-0.93981099 -0.62800193 0.9065823
-0.92253637 -0.61668605 0.73769742
-0.90993804 -0.60894531 0.59360647
-0.92261112 -0.61765289 0.47556409
-0.89669359 -0.60052317 0.35100752
-0.90099019 -0.60339749 0.24345689
-0.89215803 -0.59770197 0.13699456
-0.085013092 -0.025247049 8.6589432
-1.791067 -1.1479868 13.524112
-1.366967 -0.88527107 7.8532047
-1.1938392 -0.78140169 4.6085668
-1.1318877 -0.74477232 3.2516015
-1.063718 -0.70202738 2.4029255
-1.0262035 -0.6787945 1.8797038
-0.99572855 -0.65937614 1.5064715
-0.70124394 -0.40260109 13.821331
-1.2610172 -0.78908962 13.830535
-1.2626598 -0.81987917 5.8338275
-1.1575972 -0.75708395 3.8156335
-1.08953 -0.71552908 2.7589886
-1.0404229 -0.68508023 2.1077909
-1.0034133 -0.66170317 1.6663395
-0.98542732 -0.65081573 1.3585266
-0.9626618 -0.63988882 1.2157247
-0.94874316 -0.63134193 1.0012839
-0.92420948 -0.61524367 0.81253409
-0.91179615 -0.60743082 0.66005719
-0.9111079 -0.60719573 0.53068668
-0.90233123 -0.6015681 0.40870732
-0.87854302 -0.5861463 0.29198545
-0.88634437 -0.59134799 0.18860367
-0.94910645 -0.62896419 1.0952456
-0.94199735 -0.62471747 0.9065823
-0.92468333 -0.61346203 0.73769742
-0.90827745 -0.60325438 0.59150839
-0.92476153 -0.61442864 0.47556409
-0.89473623 -0.59469891 0.34983522
-0.89896673 -0.5975076 0.2427662
-0.89007866 -0.59181803 0.13679302
-0.085100703 -0.024950145 8.6589432
-1.7950634 -1.1417278 13.524112
-1.3649089 -0.87719184 7.8238339
-1.1928037 -0.7747907 4.5942507
-1.1312088 -0.7386806 3.2423966
-1.0621549 -0.6956858 2.3941474
-1.0285667 -0.67520827 1.8797038
-0.99534535 -0.65413612 1.502634
-0.70264506 -0.40015087 13.821331
-1.263764 -0.78468305 13.830535
-1.2612872 -0.81274372 5.8144698
-1.1573375 -0.75115985 3.8062482
-1.0883732 -0.70934451 2.7499864
-1.0384414 -0.67859119 2.0992589
-1.0006742 -0.65489668 1.6583595
-0.98485774 -0.64551377 1.3548514
-0.96191263 -0.634561 1.2122202
-0.94769311 -0.62588143 0.99814546
-0.92635143 -0.61201376 0.81253409
-0.91391093 -0.60424429 0.66005719
-0.9132219 -0.60401171 0.53068668
-0.90442562 -0.59841478 0.40870732
-0.8805837 -0.58307594 0.29198545
-0.88425094 -0.58550107 0.18815659
-0.95129615 -0.62564737 1.0952456
-0.9407959 -0.61920339 0.90363914
-0.92321867 -0.60786015 0.73516428
-0.90658826 -0.59758246 0.58941036
-0.92690063 -0.61119688 0.47556409
-0.89274913 -0.58889562 0.34866288
-0.90104693 -0.59436601 0.2427662
-0.89213914 -0.58870745 0.13679302
-0.085229822 -0.024662593 8.6639433
-1.7983806 -1.1350404 13.519174
-1.3628112 -0.86913776 7.7944622
-1.1917369 -0.7681964 4.5799346
-1.1321409 -0.73366517 3.2377942
-1.0625687 -0.69066888 2.3897583
-1.0285596 -0.67007792 1.8755709
-0.99493796 -0.64890695 1.4987966
-0.70403755 -0.39769575 13.821331
-1.2669492 -0.78054631 13.835506
-1.2588212 -0.80495089 5.7902722
-1.1556001 -0.74431252 3.7921698
-1.0871866 -0.70317674 2.7409837
-1.0364273 -0.67212439 2.0907271
-1.000427 -0.64975858 1.6543695
-0.98710501 -0.64207202 1.3548514
-0.96113807 -0.62924606 1.2087157
-0.94987208 -0.62256956 0.99814546
-0.92498529 -0.60648388 0.80979264
-0.91231072 -0.5986203 0.65773833
-0.91532469 -0.60082024 0.53068668
-0.90249908 -0.59262109 0.40729728
-0.87850839 -0.57730091 0.29105285
-0.88628924 -0.58241087 0.18815659
-0.95034748 -0.62028223 1.09192
-0.93956757 -0.6137054 0.90069598
-0.92172605 -0.60227585 0.73263109
-0.90866864 -0.59441429 0.58941036
-0.92507708 -0.60537195 0.47392058
-0.89073265 -0.58311349 0.34749055
-0.89897299 -0.58850479 0.24207552
-0.89000922 -0.58285266 0.13659149
-0.085315391 -0.024364937 8.6639433
-1.8029903 -1.1291683 13.524112
-1.3606741 -0.86110908 7.7650909
-1.1906385 -0.76161921 4.565619
-1.1314083 -0.72759563 3.2285891
-1.0609478 -0.68435949 2.3809803
-1.0261658 -0.66342813 1.867305
-0.99450606 -0.6436885 1.494959
-0.70567352 -0.39537659 13.826323
-1.2696661 -0.77611905 13.835506
-1.2573777 -0.79785854 5.7709146
-1.1552829 -0.73841566 3.7827842
-1.0878023 -0.69820172 2.7364826
-1.0365739 -0.66709131 2.0864613
-1.0001562 -0.64463013 1.6503794
-0.98649186 -0.63678402 1.3511763
-0.96033812 -0.6239444 1.2052112
-0.9487766 -0.6171279 0.99500704
-0.92709661 -0.6032514 0.80979264
-0.91068256 -0.5930149 0.65541953
-0.91741639 -0.59762156 0.53068668
-0.90054309 -0.58684814 0.40588725
-0.87640357 -0.57154757 0.29012021
-0.88831687 -0.57931364 0.18815659
-0.9525069 -0.61696112 1.09192
-0.93831211 -0.60822344 0.89775282
-0.92382276 -0.59905475 0.73263109
-0.90693122 -0.58876765 0.58731234
-0.92718458 -0.60213917 0.47392058
-0.88868672 -0.57735276 0.34631824
-0.89271635 -0.57996756 0.24069417
-0.89203829 -0.57974243 0.13659149
-0.085399918 -0.024066981 8.6639433
-1.8069208 -1.1228677 13.524112
-1.3584975 -0.85310596 7.7357197
-1.1907691 -0.75585872 4.5560746
-1.1306472 -0.72154015 3.219384
-1.0592957 -0.67806983 2.3722022
-1.0261067 -0.65832263 1.8631719
-0.99405003 -0.63848108 1.4911215
-0.70704937 -0.39291093 13.826323
-1.2728235 -0.77195871 13.840478
-1.2548363 -0.79011643 5.7467175
-1.1534814 -0.73160601 3.7687061
-1.0865605 -0.69206166 2.7274802
-1.036698 -0.66206527 2.0821953
-0.99732322 -0.63788813 1.6423994
-0.98299909 -0.62967962 1.3438259
-0.96251023 -0.62058842 1.2052112
-0.94765478 -0.61170155 0.99186856
-0.92568398 -0.59774339 0.80705118
-0.91274697 -0.58983243 0.65541953
-0.91560352 -0.59189874 0.5288136
-0.9025861 -0.58370107 0.40588725
-0.87839335 -0.56848484 0.29012021
-0.89033365 -0.57620931 0.18815659
-0.95465469 -0.6136325 1.09192
-0.93703008 -0.60275775 0.89480966
-0.92228311 -0.59349376 0.73009789
-0.90898091 -0.58559823 0.58731234
-0.92531151 -0.59634095 0.47227708
-0.8906967 -0.57424718 0.34631824
-0.89057332 -0.57416463 0.24000348
-0.88985807 -0.57391727 0.13638996
-0.085483409 -0.023768734 8.6639433
-1.8108294 -1.1165535 13.524112
-1.3562815 -0.84512848 7.7063479
-1.189611 -0.74931127 4.541759
-1.1315084 -0.71654391 3.2147813
-1.0576127 -0.67179996 2.3634241
-1.0236508 -0.65171456 1.8549061
-0.99356961 -0.63328463 1.4872841
-0.70866948 -0.39057943 13.831314
-1.2755103 -0.76751101 13.840478
-1.2533224 -0.78306788 5.7273598
-1.1531069 -0.72573709 3.7593205
-1.0871292 -0.68710166 2.7229788
-1.0367998 -0.65704662 2.0779295
-0.99699956 -0.63278836 1.6384094
-0.97946876 -0.62260735 1.3364756
-0.96166658 -0.61530298 1.2017065
-0.94650656 -0.60629052 0.98873013
-0.92776489 -0.59450847 0.80705118
-0.91107136 -0.58425158 0.65310073
-0.91766411 -0.5886991 0.5288136
-0.90058088 -0.57795608 0.40447721
-0.87623912 -0.56276071 0.28918761
-0.88814938 -0.57040685 0.18770951
-0.95364279 -0.60828853 1.0885946
-0.93572122 -0.59730852 0.89186651
-0.92071587 -0.58795071 0.72756475
-0.90719557 -0.57997721 0.58521426
-0.92340934 -0.5905633 0.47063357
-0.8886013 -0.56851506 0.34514591
-0.88840073 -0.56838369 0.23931281
-0.88764805 -0.56811446 0.13618843
-0.085565858 -0.023470197 8.6639433
-1.8147159 -1.1102258 13.524112
-1.3540268 -0.83717704 7.6769767
-1.1884217 -0.74278116 4.5274429
-1.1306942 -0.71051115 3.2055764
-1.0558989 -0.66555023 2.3546457
-1.0211611 -0.64513165 1.8466402
-0.99306524 -0.62809944 1.4834466
-0.70977515 -0.38796523 13.826323
-1.2781817 -0.76305395 13.840478
-1.2517747 -0.77603948 5.7080021
-1.1512418 -0.71896571 3.7452421
-1.0876768 -0.68214625 2.7184777
-1.0368792 -0.6520353 2.0736635
-0.99410278 -0.62609291 1.6304293
-0.97590125 -0.61556751 1.3291253
-0.96380854 -0.61194241 1.2017065
-0.94861722 -0.60298288 0.98873013
-0.92630583 -0.58902276 0.80430973
-0.90936798 -0.57868958 0.65078193
-0.91580266 -0.58300275 0.52694058
-0.89854658 -0.57223219 0.4030672
-0.87819809 -0.55969864 0.28918761
-0.89013499 -0.56730318 0.18770951
-0.9557603 -0.60495603 1.0885946
-0.93780053 -0.59403861 0.89186651
-0.91912121 -0.58242589 0.72503155
-0.90538216 -0.57437581 0.58311623
-0.92147803 -0.58480614 0.46899009
-0.88647687 -0.56280464 0.34397361
-0.88201797 -0.5599708 0.23793145
-0.88540852 -0.56233406 0.13598689
-0.085604556 -0.023162458 8.6589432
-1.8179159 -1.1034814 13.519174
-1.3526009 -0.82978392 7.6525006
-1.1872014 -0.73626852 4.5131273
-1.1298517 -0.70449299 3.1963713
-1.0541544 -0.65932071 2.3458676
-1.0186383 -0.63857412 1.8383743
-0.98982185 -0.62122166 1.4757715
-0.71087104 -0.38534802 13.821331
-1.2803786 -0.7583161 13.835506
-1.2491223 -0.76837295 5.6838055
-1.1508106 -0.71312505 3.7358565
-1.0882028 -0.67719531 2.7139764
-1.0369362 -0.64703143 2.0693977
-0.99372697 -0.62102234 1.6264393
-0.97229654 -0.60856026 1.321775
-0.96292132 -0.60667348 1.198202
-0.94742399 -0.59759152 0.98559165
-0.92481995 -0.58355451 0.80156827
-0.91138244 -0.57551181 0.65078193
-0.91391265 -0.5773266 0.52506757
-0.90053856 -0.56909215 0.4030672
-0.8801465 -0.55662978 0.28918761
-0.88790095 -0.56153077 0.18726245
-0.95470428 -0.59963036 1.0852691
-0.93644613 -0.58861053 0.88892335
-0.91749936 -0.5769195 0.72249836
-0.90354073 -0.56879413 0.58101815
-0.91951799 -0.57906967 0.46734658
-0.88843602 -0.55970687 0.34397361
-0.87977725 -0.55424899 0.23724076
-0.88313937 -0.55657625 0.13578537
-0.085684888 -0.0228635 8.6589432
-1.8210909 -1.0967282 13.514235
-1.3502702 -0.82188177 7.6231294
-1.1859499 -0.72977346 4.4988108
-1.128981 -0.69848919 3.1871662
-1.0544144 -0.65437424 2.3414786
-1.0184716 -0.63352835 1.8342415
-0.9892633 -0.61606848 1.4719341
-0.71195734 -0.38272789 13.816339
-1.2830179 -0.75384212 13.835506
-1.2475048 -0.7613892 5.6644473
-1.1503526 -0.70729619 3.7264709
-1.0887078 -0.67224908 2.7094753
-1.0369709 -0.64203507 2.0651317
-0.99076676 -0.6143741 1.6184592
-0.97153479 -0.60337406 1.3180997
-0.96200919 -0.6014182 1.1946975
-0.94620478 -0.59221584 0.98245323
-0.92330724 -0.57810384 0.79882681
-0.90963197 -0.56997496 0.64846313
-0.91199434 -0.57167077 0.52319455
-0.89845544 -0.56339681 0.40165716
-0.88208413 -0.55355406 0.28918761
-0.88563746 -0.55578089 0.18681537
-0.95362276 -0.59431946 1.0819435
-0.93506551 -0.5831992 0.88598019
-0.91950762 -0.57371336 0.72249836
-0.90167135 -0.5632323 0.57892013
-0.91352445 -0.57085168 0.46405956
-0.88626277 -0.55402577 0.3428013
-0.88170666 -0.55117464 0.23724076
