# .PCD v0.7 - Point Cloud Data file format
VERSION 0.7
FIELDS x y z
SIZE 4 4 4
TYPE F F F
COUNT 1 1 1
WIDTH 1536
HEIGHT 1
VIEWPOINT 0 0 0 1 0 0 0
POINTS 1536
DATA ascii
-0.26322061 6.6678295 10.9852
-0.61760211 14.087895 13.937228
-0.57527071 12.967264 10.548469
-0.53107864 11.92417 7.9101901
-0.50958019 11.352457 6.0350351
-0.54054403 11.995681 4.939806
-0.45676926 10.097423 3.0609789
-0.42099464 9.235261 1.8466632
-0.38574016 8.4619341 0.85341018
-0.58624607 13.813516 12.395294
-0.53992879 12.618281 9.2798738
-0.50171697 11.677607 6.9541187
-0.52199543 12.003234 5.6415205
-0.46534562 10.657788 3.8020265
-0.41042146 9.3624411 2.3509812
-0.40034437 9.132618 1.3671933
-0.36221462 8.2300749 0.42598987
0.013139994 0.056850981 5.1740766
-0.017902534 0.74722421 4.7519898
-0.027206348 0.9541474 4.6125646
-0.052105527 1.5662767 5.0571332
-0.12108395 3.3963037 8.0658417
-0.23239961 6.2757268 11.576101
0.0069297124 0.30099961 5.0459952
-0.0070782728 0.5290755 4.8917713
-0.034419883 1.1605741 4.5078249
-0.073809862 2.2448103 6.1620164
-0.42151761 12.128615 25.15703
-0.54780227 13.40477 10.899977
-0.51071268 12.444012 8.2501316
-0.46994957 11.354167 6.0350351
-0.54140657 13.025782 5.3556194
-0.46993053 11.258835 3.4022069
-0.40920451 9.7225571 1.9389926
-0.5627228 14.449738 12.960629
-0.5192067 13.213806 9.7125187
-0.46095151 11.679286 6.9541187
-0.48081854 12.023123 5.6499128
-0.43003529 10.706532 3.8184617
-0.38792545 9.6163635 2.4119418
-0.39301386 9.742569 1.452147
0.013338361 0.056804769 5.1740766
-0.015294126 0.74728215 4.7519898
-0.023875587 0.95423657 4.6125646
-0.046637885 1.566449 5.0571332
-0.10929063 3.3986583 8.0704451
-0.21049182 6.2764997 11.576101
0.0079803551 0.30097359 5.0459952
-0.0052314117 0.52909696 4.8917713
-0.0304012 1.1619438 4.5126648
-0.066024154 2.2467792 6.1667094
-0.37911028 12.127836 25.152527
-0.52455336 14.036715 11.408406
-0.46727186 12.445719 8.2501316
-0.43031329 11.355739 6.0350351
-0.52855885 13.884615 5.7021303
-0.4608736 12.051343 3.6348622
-0.41201296 10.676194 2.119921
-0.3364498 8.7182112 0.87621123
-0.52682912 14.862073 13.326435
-0.47944066 13.393272 9.8420172
-0.42142004 11.715288 6.9743838
-0.43868157 12.020192 5.6478148
-0.39283293 10.712686 3.8201051
-0.35453466 9.6225157 2.4131138
-0.38142967 10.352571 1.5371007
-0.32249156 8.7116852 0.44533688
0.013536564 0.056757864 5.1740766
-0.012685531 0.74733096 4.7519898
-0.020544535 0.95431405 4.6125646
-0.041208748 1.5680945 5.0619054
-0.09753827 3.402925 8.0796499
-0.18858148 6.2771959 11.576101
0.0090309 0.30094391 5.0459952
-0.0033844865 0.52911204 4.8917713
-0.026345074 1.1620429 4.5126648
-0.058181025 2.2469959 6.1667094
-0.33647189 12.118206 25.130022
-0.49228725 14.5325 11.80699
-0.4255327 12.497421 8.2830296
-0.39371735 11.445715 6.0814114
-0.51036227 14.762041 6.0561337
-0.43762717 12.594621 3.7941961
-0.39042222 11.124308 2.2047894
-0.30636489 8.7292862 0.87710541
-0.50356394 15.759467 14.124555
-0.43386093 13.431224 9.8685055
-0.38500085 11.85456 7.0554457
-0.39672059 12.02165 5.6478148
-0.35496655 10.699833 3.8151746
-0.32110563 9.6285534 2.4142861
-0.36361077 10.903214 1.6137662
-0.29325181 8.7477093 0.44674757
0.013734604 0.056710269 5.1740766
-0.010086953 0.74814767 4.7569294
-0.017213231 0.95437992 4.6125646
-0.035734829 1.5682288 5.0619054
-0.085708335 3.4051974 8.0842514
-0.16666883 6.2778158 11.576101
0.010070706 0.30062205 5.0410037
-0.0015375203 0.52912062 4.8917713
-0.022288628 1.1621276 4.5126648
-0.050375745 2.2489107 6.1714025
-0.29364133 12.097544 25.085011
-0.52385861 17.545742 17.329628
-0.4433291 14.592487 11.854066
-0.38573688 12.624216 8.3652735
-0.35376194 11.44702 6.0814114
-0.42362967 13.555016 4.0762024
-0.37874085 11.984818 2.3679979
-0.27589211 8.7303019 0.87710541
-0.45885223 16.123159 14.447128
-0.39104804 13.574068 9.9715157
-0.34386814 11.86445 7.0605121
-0.35569173 12.054718 5.6625013
-0.3180353 10.715168 3.8201051
-0.2874938 9.6296158 2.4142861
-0.34047443 11.404354 1.6835248
-0.26271483 8.7486792 0.44674757
0.013932477 0.056661978 5.1740766
-0.0074753687 0.7481783 4.7569294
-0.013881719 0.95443428 4.6125646
-0.030289128 1.5698364 5.0666771
-0.073906019 3.4093823 8.0934572
-0.14475414 6.2783599 11.576101
0.011120011 0.30058506 5.0410037
0.00030946455 0.52912277 4.8917713
-0.018251432 1.1634551 4.5175037
-0.042557798 2.2507982 6.176095
-0.25190854 12.122436 25.134521
-0.3970964 14.769037 11.995297
-0.34506091 12.750881 8.4475174
-0.31525868 11.501323 6.1092367
-0.36752632 13.239927 3.9831405
-0.35249951 12.540933 2.4733841
-0.24527606 8.7262344 0.87665832
-0.4070417 16.303827 14.606752
-0.34673178 13.696571 10.059812
-0.30618581 12.012098 7.1466403
-0.31490892 12.105793 5.6855798
-0.28050685 10.711493 3.8184617
-0.25375032 9.625701 2.4131138
-0.31606206 11.989613 1.765025
-0.2320421 8.7445488 0.44654605
0.014144463 0.056654226 5.1790762
-0.0048636934 0.74819982 4.7569294
-0.010539019 0.95345879 4.6076698
-0.024809191 1.5699326 5.0666771
-0.062040061 3.4115727 8.0980597
-0.12279087 6.276432 11.571712
0.012169181 0.30054441 5.0410037
0.0021564458 0.52911848 4.8917713
-0.014190104 1.1635116 4.5175037
-0.034753796 2.2543838 6.1854806
-0.20959182 12.123241 25.134521
-0.3486352 14.902636 12.102005
-0.30153507 12.793811 8.4749317
-0.27648652 11.559924 6.1393814
-0.32984698 13.691356 5.6215901
-0.31618798 13.030121 3.9210989
-0.2283397 9.2764273 1.8531915
-0.21469177 8.7220583 0.87621123
-0.35397542 16.484329 14.766376
-0.30050689 13.770437 10.112789
-0.26577055 12.08205 7.187171
-0.27264988 12.106819 5.6855798
-0.24375786 10.740732 3.8283226
-0.2201488 9.6265278 2.4131138
-0.28937921 12.654046 1.8575761
-0.20163161 8.7503004 0.44674757
0.014342137 0.056604508 5.1790762
-0.0022499249 0.74743527 4.7519898
-0.0072107627 0.95348972 4.6076698
-0.019347189 1.5715021 5.0714488
-0.050159711 3.413722 8.1026621
-0.10088129 6.2768221 11.571712
0.013218204 0.30050009 5.0410037
0.0040078666 0.52964079 4.8967428
-0.010128604 1.1635541 4.5175037
-0.026904797 2.256217 6.1901736
-0.16757271 12.145667 25.179535
-0.30033028 15.090555 12.25265
-0.25930822 12.916023 8.5544338
-0.2379422 11.649396 6.1857572
-0.27060282 13.026349 3.9196889
-0.1938829 9.1789455 1.8345392
-0.18403447 8.7127972 0.8753171
-0.30019087 16.694523 14.952605
-0.25865912 14.110874 10.360014
-0.22550866 12.186346 7.2479672
-0.23289128 12.239289 5.7464232
-0.20635487 10.746238 3.8299661
-0.18635629 9.6175194 2.4107695
-0.18908659 9.7585649 1.4535284
-0.17108613 8.7509508 0.44674757
0.014554207 0.056595225 5.1840758
0.00035912465 0.74743855 4.7519898
-0.0038824186 0.95350909 4.6076698
-0.013861505 1.57156 5.0714488
-0.038265117 3.4158299 8.1072645
-0.078970477 6.2771363 11.571712
0.014267064 0.30045214 5.0410037
0.0058566337 0.52962357 4.8967428
-0.0060669803 1.1635824 4.5175037
-0.019043423 2.2580228 6.1948662
-0.12546681 12.174477 25.238052
-0.34169996 21.509384 21.219675
-0.25154772 15.328911 12.444097
-0.22011419 13.272223 8.7874594
-0.19847666 11.721024 6.2228584
-0.23401812 13.679419 5.6159711
-0.22496496 13.017622 3.9168687
-0.16288029 9.2385035 1.8457305
-0.15353224 8.7084064 0.87487
-0.21413845 14.430974 10.592523
-0.18620412 12.402575 7.3746262
-0.19058977 12.267257 5.7590117
-0.15255216 9.6035309 2.4072523
-0.15517895 9.7690668 1.4549097
-0.1406188 8.7564907 0.44694912
0.014751673 0.056544077 5.1840758
0.0029681697 0.74743271 4.7519898
-0.00055402715 0.95351684 4.6076698
-0.0083834687 1.5730916 5.076221
-0.026356414 3.4178963 8.1118679
-0.057036966 6.2749786 11.567323
0.01531575 0.3004005 5.0410037
0.0077053295 0.52959991 4.8967428
-0.002005283 1.1635965 4.5175037
-0.01116977 2.2598011 6.1995587
-0.082969196 12.174841 25.238052
-0.26940021 21.735104 21.440462
-0.2013059 15.582676 12.648097
-0.17586404 13.431791 8.8916349
-0.1588116 11.814661 6.271553
-0.17985432 13.042311 3.9239192
-0.1306309 9.2390156 1.8457305
-0.1229925 8.6989317 0.87397587
-0.16578126 14.60947 10.722023
-0.14420098 12.515223 7.4404888
-0.14989945 12.444837 5.8408356
-0.11914912 9.6137247 2.4095972
-0.1210776 9.7695494 1.4549097
-0.1099893 8.7519321 0.44674757
0.014948958 0.056492239 5.1840758
0.0055771791 0.74741787 4.7519898
0.0027743711 0.95351297 4.6076698
-0.002892303 1.5731112 5.076221
-0.014441936 3.421875 8.1210728
-0.035132855 6.2751393 11.567323
0.01636425 0.30034521 5.0410037
0.0095539307 0.5295698 4.8967428
0.0020540259 1.1623396 4.5126648
-0.0032839337 2.2615521 6.2042518
-0.040412813 12.15764 25.202042
-0.17323501 33.072697 43.868828
-0.19403681 21.792969 21.496534
-0.15432115 16.369495 13.282065
-0.12837517 13.369603 8.8505125
-0.11792231 11.85058 6.2901034
-0.13437647 13.047656 3.9253292
-0.099373564 9.3327427 1.8634504
-0.09262681 8.6993074 0.87397587
-0.11472019 14.601876 10.716136
-0.10165594 12.657901 7.5240836
-0.11997879 13.746273 4.8735943
-0.087900445 9.8739023 1.469414
-0.0796654 8.7772408 0.44775522
0.015131061 0.056398742 5.1790762
0.0081773065 0.7466169 4.7470512
0.0061027356 0.95349747 4.6076698
0.0025988976 1.5731118 5.076221
-0.0025000044 3.4258115 8.1302767
-0.0132233 6.2728286 11.562934
0.017430225 0.30057442 5.0459952
0.011414324 0.53006613 4.9017143
0.0061113359 1.1623253 4.5126648
0.004610376 2.2615497 6.2042518
0.0020217209 12.135938 25.15703
-0.057857066 33.112274 43.920696
-0.1178675 21.775682 21.479012
-0.096810445 16.307659 13.23185
-0.080658503 13.198535 8.7381124
-0.076555349 11.85092 6.2901034
-0.14527154 21.900423 8.9368582
-0.088667557 13.02406 3.9182789
-0.067287736 9.4018021 1.876507
-0.062366899 8.7145166 0.8753171
-0.063696511 14.59006 10.707306
-0.057471 12.658178 7.5240836
-0.075505637 14.417147 5.1069727
-0.053272802 9.8444376 1.4652699
-0.049026623 8.7774658 0.44775522
0.015327837 0.056345582 5.1790762
0.010794961 0.74736071 4.7519898
0.0094310259 0.95347035 4.6076698
0.0080978824 1.5745858 5.0809932
0.0094692353 3.4297068 8.1394825
0.0086730383 6.2728367 11.562934
0.018479319 0.30051175 5.0459952
0.013264529 0.53002304 4.9017143
0.010168571 1.1622969 4.5126648
0.012514267 2.2632456 6.2089443
0.044280313 12.107556 25.098513
-0.041834921 21.765263 21.468496
-0.034455162 13.148561 8.7052155
-0.035029728 11.797957 6.2622776
-0.068867601 21.914703 8.9424772
-0.043172751 13.014697 3.9154587
-0.034648962 9.4511023 1.8858333
-0.012749669 14.569985 10.692591
-0.013294389 12.666924 7.5291495
-0.025262365 14.464543 5.1234078
-0.021633357 11.262195 2.8070126
-0.018956516 9.8693228 1.4687233
-0.018355859 8.7625961 0.44715065
0.015524427 0.056291737 5.1790762
0.013403671 0.74731845 4.7519898
0.012759201 0.95343161 4.6076698
0.013594164 1.574548 5.0809932
0.021453364 3.4316065 8.1440849
0.030557567 6.2703733 11.558544
0.019547874 0.30073339 5.0509868
0.015114575 0.52997351 4.9017143
0.014225681 1.1622543 4.5126648
0.020430055 2.2649136 6.2136374
0.086543299 12.107328 25.098513
0.034134671 21.761707 21.464993
0.016363377 15.661814 12.710866
0.011391005 13.090059 8.6668339
0.006111301 11.718272 6.2205396
0.0076164664 21.877724 8.9274931
0.0022514232 12.981189 3.9055886
-0.0016531005 9.4216928 1.8802376
0.067090407 22.626348 20.233498
0.038087983 14.561857 10.686704
0.030805646 12.619474 7.5012851
0.025335604 14.525932 5.1447735
0.017656265 11.247619 2.8034956
0.015501745 9.8742819 1.469414
0.013828721 9.9066753 0.49330121
0.015720826 0.056237202 5.1790762
0.016012216 0.74726713 4.7519898
0.016087221 0.9533813 4.6076698
0.019108515 1.5759835 5.0857654
0.033489056 3.4373715 8.1578932
0.052445069 6.2702279 11.558544
0.02059751 0.30066332 5.0509868
0.016964436 0.52991754 4.9017143
0.01828262 1.1621976 4.5126648
0.028335953 2.2648284 6.2136374
0.12875889 12.102599 25.089512
0.11006091 21.754326 21.457983
0.070962563 15.646091 12.698312
0.057156745 13.106666 8.6778002
0.047157917 11.753616 6.23909
0.083894931 21.854385 8.918128
0.047634538 13.00029 3.9112287
0.03110444 9.3823433 1.8727766
0.14821658 22.958277 20.529469
0.074830063 12.61498 7.4987521
0.076411285 14.596587 5.169426
0.05689308 11.24263 2.8023233
0.050044514 9.8890228 1.471486
0.048458215 9.9165583 0.49370429
0.015917035 0.056181982 5.1790762
0.018620569 0.74720669 4.7519898
0.019415043 0.95331931 4.6076698
0.024609609 1.5759072 5.0857654
0.045435693 3.4333265 8.1486874
0.074303508 6.2676125 11.554155
0.021646895 0.30058962 5.0509868
0.018814089 0.52985507 4.9017143
0.022314984 1.16087 4.5078249
0.03626921 2.2664411 6.2183299
0.17088096 12.093369 25.071507
0.24719387 21.46283 23.347036
0.18596651 21.750242 21.454479
0.12576467 15.669101 12.717142
0.10280868 13.093843 8.6695757
0.088883542 11.846404 6.2877846
0.093116708 13.014435 3.9154587
0.063720986 9.3625278 1.8690461
0.11015804 16.184322 1.5459356
0.22872648 22.994955 20.562723
0.13637161 14.209598 10.43065
0.11927038 12.657747 7.5240836
0.095970556 11.222919 2.7976341
0.08464805 9.8986921 1.4728674
0.083324283 9.9463024 0.49491346
0.01611305 0.05612608 5.1790762
0.021251068 0.74791378 4.7569294
0.022742631 0.95324576 4.6076698
0.030110402 1.5758117 5.0857654
0.057419963 3.433147 8.1486874
0.096144319 6.2649198 11.549767
0.022673318 0.30022445 5.0459952
0.020642309 0.52925354 4.8967428
0.026395779 1.1620417 4.5126648
0.044214081 2.2680264 6.2230225
0.21324715 12.101405 25.089512
0.32348543 21.553358 23.446264
0.26180199 21.742329 21.44747
0.18027994 15.653 12.704589
0.14870383 13.110128 8.680542
0.13145234 11.956759 6.3457546
0.13869821 13.02842 3.9196889
0.095997266 9.3229532 1.8615851
0.30944401 23.027618 20.592653
0.18507211 14.140327 10.380616
0.16345343 12.657254 7.5240836
0.13526234 11.232237 2.7999787
0.11937932 9.9131918 1.4749395
0.12041448 10.145774 0.50297469
0.016308868 0.056069493 5.1790762
0.023861643 0.74783504 4.7569294
0.026069943 0.95316052 4.6076698
0.035610829 1.5756971 5.0857654
0.069324426 3.4290192 8.1394825
0.11801238 6.2645464 11.549767
0.023721159 0.30014348 5.0459952
0.02248962 0.52917826 4.8967428
0.030451901 1.1619425 4.5126648
0.052170452 2.2695832 6.2277155
0.25557956 12.104939 25.098513
0.39878148 21.555489 23.44994
0.3376953 21.741283 21.44747
0.23392484 15.586112 12.651235
0.19396956 13.076081 8.6586103
0.17318842 11.956228 6.3457546
0.18451411 13.051841 3.9267392
0.12860759 9.3274727 1.8625177
0.18860552 13.678472 1.3210548
0.39007634 23.04133 20.605955
0.23503308 14.175969 10.407104
0.20600793 12.557471 7.4658203
0.19965746 12.571233 5.8995814
0.17454484 11.236557 2.801151
0.15405901 9.9176664 1.4756302
0.15582912 10.145292 0.50297469
0.016504489 0.056012224 5.1790762
0.026444135 0.74697065 4.7519898
0.029396934 0.95306373 4.6076698
0.041110817 1.5755632 5.0857654
0.13982552 6.2617021 11.545378
0.02476871 0.30005884 5.0459952
0.024336662 0.52909654 4.8967428
0.034470141 1.1605725 4.5078249
0.060092457 2.2693875 6.2277155
0.29772499 12.099622 25.089512
0.47469267 21.584469 23.483017
0.41358447 21.739971 21.44747
0.28775308 15.554069 12.626127
0.23915267 13.05024 8.6421614
0.21468349 11.942264 6.3387985
0.48351321 27.158369 11.06275
0.23007241 13.051117 3.9267392
0.16091114 9.312233 1.85972
0.23531863 13.61798 1.3156899
0.46996954 23.013697 20.582676
0.28459612 14.179102 10.410048
0.24632408 12.379967 7.3619599
0.24353802 12.570459 5.8995814
0.27621529 14.386359 5.0971117
0.21385916 11.240739 2.8023233
0.18877138 9.922019 1.4763209
0.18841688 9.9948359 0.49692878
0.016699906 0.05595427 5.1790762
0.029051388 0.7468738 4.7519898
0.032723568 0.95295531 4.6076698
0.046610311 1.5754101 5.0857654
0.16162021 6.2587814 11.540989
0.02581596 0.29997057 5.0459952
0.026183406 0.52900839 4.8967428
0.038521085 1.1604452 4.5078249
0.068013728 2.2691638 6.2277155
0.34014225 12.105037 25.103014
0.4894686 21.738396 21.44747
0.43071541 19.584427 15.877567
0.28452262 13.040966 8.6366787
0.25265998 11.768719 6.2483649
0.57949519 27.212135 11.085227
0.27542531 13.040643 3.9239192
0.19351792 9.3165255 1.8606524
0.33797735 16.270828 1.553983
0.55056727 23.023115 20.592653
0.33627895 14.270962 10.47774
0.28953671 12.379032 7.3619599
0.28741562 12.569532 5.8995814
0.32621711 14.375867 5.0938249
0.22351603 9.9262505 1.4770116
0.22174184 9.9241924 0.49410737
0.016895121 0.055895638 5.1790762
0.031658288 0.74676788 4.7519898
0.036088534 0.95385277 4.6125646
0.052109234 1.5752378 5.0857654
0.18346646 6.2581792 11.540989
0.026862895 0.2998786 5.0459952
0.028029829 0.52891374 4.8967428
0.042571556 1.1603036 4.5078249
0.075934179 2.2689126 6.2277155
0.38273847 12.114655 25.125521
0.56673777 21.79003 21.500038
0.49848023 19.55946 15.858738
0.32919589 13.006453 8.614747
0.29340729 11.754479 6.2414088
0.67539871 27.247023 11.100211
0.32082593 13.034806 3.922509
0.22675246 9.3452578 1.8662484
0.63164568 23.04718 20.615931
0.39079317 14.443444 10.604296
0.33066052 12.30038 7.3163633
0.33117014 12.563916 5.8974833
0.37651983 14.379359 5.095468
0.2582925 9.9303598 1.4777021
0.25535011 9.8834028 0.49249512
0.017090131 0.05583632 5.1790762
0.034264799 0.74665284 4.7519898
0.039417882 0.95372099 4.6125646
0.05760752 1.5750462 5.0857654
0.2052319 6.2551069 11.536599
0.027909502 0.29978299 5.0459952
0.029906411 0.52934486 4.9017143
0.046621513 1.1601479 4.5078249
0.083853692 2.2686336 6.2277155
0.42708564 12.171986 25.247053
0.64416295 21.834259 21.545597
0.56573766 19.522585 15.830491
0.37652126 13.072099 8.6586103
0.3344363 11.753384 6.2414088
0.25964472 9.3542309 1.8681136
0.37929207 13.664549 1.3201607
0.44737965 14.643998 10.751454
0.37502438 12.562684 5.8974833
0.42685097 14.382678 5.0971117
0.29310039 9.9343472 1.4783928
0.28984806 9.8824511 0.49249512
0.017284933 0.055776324 5.1790762
0.036909528 0.74730474 4.7569294
0.042792581 0.95459473 4.6174598
0.063165009 1.576327 5.0905371
0.22706506 6.2543526 11.536599
0.028955771 0.29968375 5.0459952
0.031753987 0.52923727 4.9017143
0.050615858 1.1587224 4.5029855
0.091772199 2.268327 6.2277155
0.47015885 12.185648 25.278561
0.72260952 21.899599 21.612183
0.631733 19.454353 15.777137
0.4329482 13.405046 8.8779278
0.37602708 11.769855 6.2506838
0.29137483 9.3238077 1.8625177
0.4243435 13.578524 1.3125604
0.86915511 25.269951 22.601255
0.49959433 14.674664 10.775
0.43359873 12.801846 7.6127448
0.41811767 12.538617 5.8869925
0.477523 14.39526 5.1020422
0.32793927 9.9382133 1.4790835
0.32630923 9.9412975 0.49491346
0.017479522 0.055715647 5.1790762
0.039517883 0.74717134 4.7569294
0.046124481 0.95443952 4.6174598
0.068667032 1.5760969 5.0905371
0.24889544 6.2535219 11.536599
0.030001685 0.29958087 5.0459952
0.033635389 0.5296551 4.9066854
0.054660246 1.1585387 4.5029855
0.099689573 2.267993 6.2277155
0.5124172 12.177408 25.265059
0.80021954 21.929018 21.643724
0.49170402 13.737752 9.0972452
0.41867837 11.812741 6.2738719
0.9610135 27.247721 11.103957
0.47398686 13.641661 1.3183724
0.95848942 25.296614 22.627859
0.55263507 14.721302 10.810317
0.47892678 12.817486 7.6228776
0.46255147 12.555223 5.8953853
0.3626281 9.9370079 1.4790835
0.36155286 9.9550762 0.49551806
0.0176739 0.055654295 5.1790762
0.042169809 0.74780458 4.761869
0.049455814 0.95427275 4.6174598
0.074238539 1.5773387 5.0953088
0.27072278 6.252615 11.536599
0.031047234 0.2994743 5.0459952
0.035484027 0.52953446 4.9066854
0.058703966 1.1583408 4.5029855
0.10768764 2.2693548 6.2324085
0.87889862 21.979544 21.696293
0.6260038 15.933688 10.539256
0.46421921 11.921869 6.3318419
1.0571975 27.271997 11.115195
1.0469396 25.296843 22.631184
0.60368717 14.711205 10.804431
0.52366525 12.815737 7.6228776
1.163969 28.980757 10.183772
0.3977083 9.9455786 1.4804649
0.017868062 0.055592261 5.1790762
0.044779878 0.74765283 4.761869
0.052786544 0.95409429 4.6174598
0.079744019 1.5770699 5.0953088
0.29243484 6.2492394 11.53221
0.032060675 0.29907715 5.0410037
0.037332229 0.52940738 4.9066854
0.062746972 1.1581289 4.5029855
0.1156085 2.2689652 6.2324085
0.69291371 16.129591 13.100034
0.68394262 15.985716 10.574895
0.51127815 12.048524 6.399087
1.1547369 27.323719 11.137671
0.81301665 19.47942 1.8432432
0.65521497 14.713046 10.807374
0.56916147 12.831057 7.6330104
1.2630638 28.929342 10.167336
0.43199208 9.9342337 1.4790835
0.018062007 0.055529553 5.1790762
0.047389399 0.74749196 4.761869
0.056116633 0.95390421 4.6174598
0.085329264 1.5782725 5.100081
0.31424698 6.2481809 11.53221
0.033104457 0.29896343 5.0410037
0.039179977 0.52927387 4.9066854
0.06678921 1.1579028 4.5029855
0.12352797 2.2685478 6.2324085
0.6363647 12.103983 25.125521
0.7531864 16.212614 13.169081
0.73915905 15.970701 10.566671
0.55312902 12.042242 6.3967681
1.2501074 27.319523 11.137671
0.88123256 19.48144 1.8436903
0.70637518 14.706633 10.804431
0.61291635 12.807462 7.6203442
1.2227339 25.832684 12.042678
1.3647057 28.938908 10.172268
0.74703282 15.959272 0.73816127
0.018255731 0.055466168 5.1790762
0.049946174 0.74654675 4.7569294
0.059446041 0.95370251 4.6174598
0.090923868 1.5794553 5.1048532
0.33592659 6.2446537 11.527821
0.034147833 0.29884607 5.0410037
0.041027248 0.52913386 4.9066854
0.070830643 1.1576625 4.5029855
0.13154586 2.2698255 6.2371011
0.67812401 12.092994 25.107515
0.8093859 16.20211 13.162804
0.79344726 15.938788 10.54748
0.60281575 12.19509 6.4779258
1.3470594 27.347404 11.150783
0.94923013 19.478243 1.8436903
0.7568745 14.687929 10.792658
0.657619 12.805244 7.6203442
1.3142818 25.855457 12.055267
1.4645184 28.910387 10.16405
0.80323857 15.966548 0.73856437
0.018466637 0.055442113 5.1840758
0.052551802 0.74636781 4.7569294
0.062707596 0.95247316 4.6125646
0.096436642 1.5791283 5.1048532
0.35772246 6.243443 11.527821
0.035190791 0.29872504 5.0410037
0.042830531 0.52845615 4.9017143
0.074871205 1.1574082 4.5029855
0.13946822 2.2693527 6.2371011
0.72097969 12.101418 25.130022
0.8640669 16.164206 13.134557
1.038412 19.489279 12.880468
0.68401629 12.922808 6.860528
1.4437326 27.365685 11.160148
1.0174758 19.479784 1.8441374
0.85784018 15.489879 13.89842
0.80458665 14.620625 10.745567
0.70089692 12.777045 7.6051455
1.4035412 25.832582 12.046875
1.5705329 28.999403 10.19692
1.1389517 21.098564 5.1868172
0.85923576 15.968636 0.7387659
0.018660054 0.055377316 5.1840758
0.055156793 0.74617988 4.7569294
0.066031963 0.95224851 4.6125646
0.10204457 1.5802717 5.1096253
0.37936857 6.2397661 11.523432
0.036233321 0.29860038 5.0410037
0.044674926 0.52830344 4.9017143
0.078910865 1.1571398 4.5029855
0.14761283 2.272296 6.2464867
0.76321715 12.098827 25.130022
1.9457498 34.161102 27.671886
1.1102288 19.55233 12.924332
0.76356512 13.530684 7.1805224
1.3634784 24.236174 9.8958511
1.1374128 20.408203 3.9721045
1.0854669 19.476114 1.8441374
0.90751505 15.412243 13.83191
0.85490865 14.605621 10.736738
0.74674857 12.796038 7.6178112
1.4937052 25.827526 12.046875
1.4078066 24.416121 8.6010733
1.2117556 21.079903 5.1833
0.018853242 0.05531184 5.1840758
0.05776111 0.74598277 4.7569294
0.069355525 0.95201218 4.6125646
0.10756012 1.5799059 5.1096253
0.40114713 6.2384038 11.523432
0.037275411 0.29847208 5.0410037
0.046565976 0.52867526 4.9066854
0.082949556 1.1568574 4.5029855
0.15507182 2.2648802 6.2277155
0.80515593 12.091745 25.121019
0.88621813 14.658085 11.923113
0.79011893 13.18303 6.9996557
1.459962 24.430256 9.9763908
1.8289829 30.695065 9.1283503
1.2054485 20.350168 3.9618456
1.1534445 19.472208 1.8441374
0.90188217 14.538001 10.689648
0.79353988 12.827773 7.6380763
1.5855182 25.849337 12.059464
1.5114763 24.712713 8.7062578
1.2838514 21.051287 5.1774387
0.019064026 0.055285521 5.1890759
0.060364727 0.74577659 4.7569294
0.072756015 0.95277959 4.6174598
0.11307437 1.5795208 5.1096253
0.4227587 6.2345757 11.519043
0.038317047 0.29834014 5.0410037
0.048362061 0.52797866 4.9017143
0.086987227 1.1565608 4.5029855
0.16409263 2.2798162 6.2699504
0.84857696 12.106234 25.15703
0.93240964 14.577215 11.860343
0.76142734 11.936817 7.9266386
0.80500001 12.689471 6.7422695
1.553719 24.559183 10.030709
1.9382319 30.722006 9.1382208
1.2764765 20.345837 3.9618456
1.2214081 19.468063 1.8441374
0.94865829 14.474263 10.6455
0.83521938 12.777609 7.6102118
1.6766206 25.857231 12.065757
1.6044345 24.810959 8.7424145
1.3585775 21.066078 5.1821275
0.64281267 9.9674854 1.4852996
1.028012 15.983691 0.73977351
0.019256892 0.055218637 5.1890759
0.062967606 0.74556136 4.7569294
0.076081395 0.95251977 4.6174598
0.11858724 1.5791165 5.1096253
0.44451886 6.2330618 11.519043
0.039396942 0.29849067 5.0459952
0.050204758 0.52780664 4.9017143
0.091122687 1.1575031 4.5078249
0.17477943 2.3153656 6.3684988
0.89003134 12.092342 25.134521
0.95236903 14.115621 11.490005
0.8418923 12.576086 6.6842995
1.6493205 24.701632 10.090647
2.04546 30.715054 9.1382208
1.3478137 20.346159 3.9627783
1.2893569 19.46368 1.8441374
0.99444377 14.402314 10.595467
0.8703379 12.636995 7.5291495
1.7684165 25.873861 12.076248
1.721222 25.248064 8.896904
1.4311143 21.046659 5.1786108
0.67491406 9.9256554 1.4797742
0.019431423 0.055111382 5.1840758
0.065569714 0.74533701 4.7569294
0.079405837 0.95224839 4.6174598
0.12409866 1.5786929 5.1096253
0.46627355 6.2314725 11.519043
0.040438633 0.29835132 5.0459952
0.052046839 0.52762818 4.9017143
0.095162578 1.157178 4.5078249
0.18381245 2.3267834 6.4013476
0.99888009 14.073385 11.458621
0.85773695 12.114735 8.0472631
0.88547456 12.568652 6.6819806
1.7423601 24.792835 10.12998
2.1536694 30.722082 9.1424503
1.4253212 20.434437 3.9804981
1.3576366 19.464029 1.8445843
1.0438336 14.38666 10.586637
0.87772089 12.126533 7.2302351
1.858397 25.863003 12.074149
1.8103567 25.256033 8.9018354
1.5045722 21.041534 5.1786108
1.3880377 19.459435 0.88064367
0.019623678 0.055043217 5.1840758
0.068171024 0.7451036 4.7569294
0.082729325 0.95196539 4.6174598
0.12948626 1.5767624 5.1048532
0.48802263 6.2298069 11.519043
0.041479826 0.29820836 5.0459952
0.053942896 0.52797353 4.9066854
0.099201299 1.1568388 4.5078249
0.19377932 2.3484852 6.4623537
2.5569711 34.327667 27.838226
0.91985232 12.378542 8.2227173
0.92901516 12.561067 6.6796618
1.9847937 26.899475 10.985956
2.2608962 30.714376 9.1424503
1.5016664 20.497923 3.9935546
1.4255704 19.459171 1.8445843
1.0977252 14.431293 10.621955
0.90830112 11.968652 7.1390405
1.9479821 25.847307 12.069953
1.8708888 24.882267 8.7736416
1.5772843 21.026461 5.1762662
1.4563278 19.459452 0.88084519
0.019815696 0.054974381 5.1840758
0.070771508 0.74486107 4.7569294
0.086143732 0.95268494 4.622355
0.1349894 1.5763007 5.1048532
0.50976574 6.2280655 11.519043
0.042520512 0.29806173 5.0459952
0.055785537 0.52778202 4.9066854
0.10323881 1.1564854 4.5078249
0.2030119 2.3598297 6.495203
0.96954447 12.458632 8.2775459
0.97046071 12.526831 6.6634302
2.0804644 26.915491 10.995321
2.3725221 30.763695 9.1593714
1.5799767 20.580717 4.0103421
1.493487 19.454077 1.8445843
1.1529026 14.487812 10.666102
0.96986485 12.21465 7.285965
2.0385511 25.844875 12.072052
1.9577327 24.875584 8.7736416
1.6502904 21.015982 5.1750941
1.5234648 19.444288 0.88044208
0.019988956 0.054865371 5.1790762
0.073371127 0.74460948 4.7569294
0.089468695 0.95237839 4.622355
0.14035819 1.5743331 5.100081
0.53150266 6.2262483 11.519043
0.043560684 0.29791149 5.0459952
0.057627503 0.52758408 4.9066854
0.10727507 1.156118 4.5078249
0.21463606 2.39692 6.598444
1.0644835 12.143797 25.26956
1.1430366 14.02336 11.427238
1.0154003 12.484346 8.2967367
2.1717904 26.875719 10.98221
1.6545589 20.609352 4.01687
1.5613853 19.448744 1.8445843
1.2001204 14.443419 10.636671
1.0185517 12.284223 7.3290291
2.1283815 25.833078 12.069953
2.0608039 25.066263 8.8426685
1.7232424 21.005249 5.1739216
1.6139252 19.672718 2.8452487
1.5921439 19.448811 0.88084519
0.02018035 0.054795261 5.1790762
0.075969853 0.74434888 4.7569294
0.092792571 0.95206034 4.622355
0.14585279 1.5738337 5.100081
0.55302101 6.2219696 11.514653
0.044600323 0.29775763 5.0459952
0.059468761 0.52737969 4.9066854
0.11131002 1.1557364 4.5078249
0.22396156 2.4064658 6.6266007
1.1084481 12.157351 25.305569
1.2058303 14.182174 11.559052
1.2940692 15.251421 10.119812
1.1026486 13.049439 6.9416862
2.2718236 26.941887 11.012178
1.7248482 20.583872 4.0131402
1.6292645 19.443176 1.8445843
1.2452985 14.378736 10.592523
1.0718194 12.400847 7.3999581
1.7965539 20.999105 5.1739216
1.6813196 19.652163 2.8431766
1.6600233 19.443134 0.88084519
0.020371499 0.054724485 5.1790762
0.078567654 0.74407911 4.7569294
0.096115313 0.95173061 4.622355
0.15134561 1.5733149 5.100081
0.574516 6.2176166 11.510265
0.045639422 0.29760012 5.0459952
0.0613093 0.52716893 4.9066854
0.11546869 1.1565918 4.5126648
0.23136434 2.3953631 6.598444
1.1502628 12.146905 25.292067
3.1323466 35.167137 34.775261
1.2560146 14.185632 11.565329
1.3484029 15.259305 10.128036
2.3658545 26.933792 11.012178
2.0854259 23.788881 7.1091833
1.7966888 20.577726 4.0131402
1.6971239 19.43737 1.8445843
1.2922165 14.338071 10.566034
1.111238 12.354095 7.3746262
2.5854187 28.969257 10.211712
1.8694123 20.987865 5.1727495
1.7490296 19.636309 2.8417952
1.7283248 19.442198 0.88104671
0.020562399 0.054653041 5.1790762
0.081164494 0.74380034 4.7569294
0.099436887 0.95138931 4.622355
0.15683658 1.572777 5.100081
0.59598732 6.2131891 11.505876
0.046677962 0.29743901 5.0459952
0.063149087 0.52695167 4.9066854
0.11950524 1.1561817 4.5126648
0.24006832 2.3979754 6.6078296
1.1901027 12.116818 25.238052
3.2629747 35.241215 34.859367
1.3108765 14.239301 11.612406
1.1177651 12.164901 8.0938683
1.2809427 13.994277 7.4425468
2.4535303 26.856123 10.984083
2.1688874 23.786234 7.1105928
1.8693962 20.581114 4.0150051
1.7649626 19.431328 1.8445843
1.147936 12.281468 7.3340955
2.6878333 28.974165 10.216642
1.9426624 20.981213 5.1727495
1.8193887 19.649809 2.844558
1.7966399 19.441021 0.88124824
0.020772113 0.054620177 5.1840758
0.083760351 0.74351251 4.7569294
0.10264764 0.95002407 4.6174598
0.16232564 1.57222 5.100081
0.61743474 6.2086873 11.501487
0.047715932 0.29727426 5.0459952
0.064988106 0.52672803 4.9066854
0.12354033 1.1557574 4.5126648
0.24825934 2.395406 6.603137
1.2310687 12.099595 25.211044
3.3859696 35.22961 34.859367
3.2749438 34.262711 27.835089
1.1546617 12.102649 8.0554876
1.329784 13.98972 7.4425468
2.2528081 23.788069 7.1134133
1.943072 20.594023 4.0187354
1.8327799 19.425049 1.8445843
3.4554815 35.433212 31.789612
1.4751581 15.18159 11.189985
1.1733203 12.097178 7.2277017
2.0158885 20.974304 5.1727495
1.8874943 19.638407 2.8438673
1.8644907 19.434629 0.88124824
0.020962646 0.054547336 5.1840758
0.08635518 0.74321562 4.7569294
0.10596322 0.94966 4.6174598
0.16781272 1.5716438 5.100081
0.63885796 6.2041121 11.497098
0.048801016 0.29739058 5.0509868
0.066758789 0.52596927 4.9017143
0.12757394 1.1553192 4.5126648
0.25680336 2.3962409 6.6078296
3.5089233 35.217575 34.859367
3.3937552 34.243324 27.82881
1.1931957 12.061094 8.0308142
1.3716558 13.914459 7.4054461
2.3358302 23.780062 7.1134133
2.0130329 20.56756 4.0150051
1.9005748 19.418533 1.8445843
3.5810223 35.43951 31.80624
1.5317874 15.212543 11.216474
1.2133845 12.071563 7.2150354
3.9124732 39.19812 13.799493
2.0886083 20.962301 5.171577
1.9560337 19.631699 2.8438673
1.9323189 19.428003 0.88124824
0.021152925 0.054473832 5.1840758
0.089041635 0.74368107 4.761869
0.10927751 0.94928437 4.6174598
0.17329776 1.5710484 5.100081
0.6602568 6.1994629 11.492708
0.049838807 0.29721844 5.0509868
0.068594359 0.52573299 4.9017143
0.13160597 1.1548668 4.5126648
0.26516625 2.39533 6.6078296
3.6343958 35.229942 34.8839
3.5152533 34.250629 27.844503
1.2843014 12.535216 8.3460827
1.4134685 13.843483 7.3706641
2.4275651 23.857668 7.1387939
2.0630102 20.345371 3.9739697
1.9688491 19.416735 1.8450316
3.7085907 35.463928 31.839495
3.3153331 31.810652 23.371725
1.3701652 13.169181 7.8660626
4.1473274 40.133049 14.131481
2.1617675 20.954884 5.171577
2.0245492 19.624752 2.8438673
2.0006354 19.426109 0.88144976
0.021362422 0.054438706 5.1890759
0.091637023 0.74336576 4.761869
0.11247025 0.94788599 4.6125646
0.17878069 1.570434 5.100081
0.68163097 6.1947393 11.488319
0.050875988 0.29704264 5.0509868
0.070429094 0.52549034 4.9017143
0.1356364 1.1544005 4.5126648
0.27352589 2.3943899 6.6078296
3.7603765 35.245415 34.911938
3.6388977 34.276852 27.875887
3.106302 29.308758 19.407898
3.3976252 32.164486 17.01687
2.5143447 23.882442 7.148664
2.1278648 20.279423 3.9627783
2.0371337 19.414698 1.8454785
3.8335645 35.461903 31.84947
3.4276516 31.81094 23.380554
1.4258084 13.254325 7.9192595
4.316999 40.395363 14.228449
2.2349007 20.94721 5.171577
2.0925148 19.612642 2.8431766
2.0684328 19.419008 0.88144976
0.021552319 0.05436381 5.1890759
0.094231293 0.7430414 4.761869
0.1157783 0.94748759 4.6125646
0.18426144 1.5698004 5.100081
0.70325047 6.1923227 11.488319
0.05191255 0.29686323 5.0509868
0.072262965 0.52524132 4.9017143
0.1398164 1.1551676 4.5175037
0.2818822 2.3934202 6.6078296
3.8833828 35.232075 34.911938
3.7593729 34.271683 27.882166
1.4122962 12.895882 8.5900736
3.5098796 32.152431 17.01687
3.9103565 35.878994 14.670212
2.6075537 23.964127 7.1754546
2.1975808 20.262104 3.9609132
2.1054282 19.412418 1.8459258
3.96644 35.529942 31.922632
3.5373306 31.786732 23.371725
1.4849191 13.364947 7.9876556
3.7557049 33.964619 15.884212
4.4693785 40.483307 14.264606
2.3074739 20.93445 5.1704044
2.1609628 19.605217 2.8431766
2.1362054 19.411669 0.88144976
0.021741953 0.054288246 5.1890759
0.096824415 0.74270791 4.761869
0.11908495 0.94707769 4.6125646
0.18973994 1.5691476 5.100081
0.72458279 6.1874509 11.48393
0.052948479 0.29668021 5.0509868
0.074095957 0.52498585 4.9017143
0.14384784 1.1546725 4.5175037
0.29023507 2.392422 6.6078296
4.0063419 35.218304 34.911938
3.8794184 34.262218 27.885302
1.4267704 12.6208 8.4118786
4.0345368 35.855911 14.666465
2.6911883 23.95488 7.1754546
2.2661085 20.234781 3.9571826
2.1737316 19.409901 1.8463727
4.0977006 35.578938 31.979164
3.6519539 31.806313 23.395271
1.5325443 13.368248 7.9927216
3.8757846 33.964832 15.890508
4.6138716 40.495605 14.274467
2.3821828 20.940756 5.1739216
2.2293847 19.597555 2.8431766
2.2039516 19.404095 0.88144976
0.021911437 0.054173179 5.1840758
0.099416368 0.74236542 4.761869
0.12252093 0.94766605 4.6174598
0.19521613 1.5684756 5.100081
0.74617666 6.1848841 11.48393
0.053983763 0.29649359 5.0509868
0.075928055 0.52472407 4.9017143
0.14787751 1.1541634 4.5175037
0.29858443 2.3913941 6.6078296
4.1304984 35.214729 34.922451
4.0017009 34.271667 27.904135
1.448058 12.420538 8.2830296
3.7368159 32.149147 17.028465
4.1596727 35.84161 14.666465
2.7709248 23.911983 7.1655841
2.3378546 20.236507 3.9590478
2.242043 19.407141 1.8468199
3.7639065 31.801399 23.401157
1.5969064 13.512652 8.0813828
3.9969721 33.973637 15.900997
4.7590561 40.512085 14.285971
2.4558313 20.93714 5.1750941
2.2977793 19.589653 2.8431766
2.2722523 19.401247 0.88165128
0.022120424 0.054135136 5.1890759
0.1020071 0.74201381 4.761869
0.12582816 0.9472326 4.6174598
0.20050026 1.5663041 5.0953088
0.76746613 6.1798649 11.479541
0.055018391 0.29630336 5.0509868
0.077837825 0.52498305 4.9066854
0.1519054 1.1536402 4.5175037
0.30693009 2.3903372 6.6078296
4.1199126 34.245895 27.89472
1.4919035 12.419558 8.2857704
3.8490148 32.135906 17.028465
4.2902632 35.872902 14.685197
2.408479 20.228224 3.9590478
2.309773 19.399197 1.8468199
4.6110449 37.717575 33.924583
3.8675551 31.727884 23.357012
3.6952629 30.358549 18.057041
4.117722 33.977501 15.909389
4.9021425 40.509289 14.290901
2.5172389 20.83193 5.1516476
2.3661458 19.581512 2.8431766
2.34056 19.398155 0.88185281
0.022289099 0.054018892 5.1840758
0.10459659 0.74165326 4.761869
0.12913384 0.94678766 4.6174598
0.20616131 1.5670747 5.100081
0.78903317 6.1771483 11.479541
0.056052346 0.2961095 5.0509868
0.079669878 0.52470809 4.9066854
0.15593143 1.1531029 4.5175037
0.31527209 2.3892512 6.6078296
4.2399063 34.235168 27.897856
3.6173372 29.250082 19.407898
3.9611666 32.122276 17.028465
4.4171567 35.871513 14.690815
2.6286781 21.378141 6.4210873
2.4784765 20.214819 3.9581153
2.3780808 19.39596 1.8472669
4.7324233 37.619751 33.851421
3.9782827 31.714193 23.357012
3.7996042 30.332636 18.049442
4.2363005 33.962917 15.909389
5.0423498 40.482559 14.287615
2.5905404 20.827839 5.1528196
2.4344838 19.573135 2.8431766
2.4088738 19.394827 0.88205439
0.022477524 0.053940758 5.1840758
0.1071848 0.7412836 4.761869
0.13243796 0.94633108 4.6174598
0.21063013 1.5589491 5.076221
0.81027901 6.1719823 11.475153
0.057085622 0.29591203 5.0509868
0.08150097 0.52442682 4.9066854
0.15995558 1.1525515 4.5175037
0.32384199 2.3898461 6.6125221
4.3593831 34.220158 27.897856
3.7246938 29.278757 19.435312
4.0777302 32.14341 17.047016
4.5446754 35.874271 14.698308
2.7038877 21.373594 6.4224968
2.5477946 20.196297 3.9562502
2.4457707 19.387541 1.8472669
4.8397641 37.417858 33.685146
4.0863762 31.680069 23.342295
3.9060125 30.323463 18.051975
4.3559823 33.956928 15.913587
5.1806288 40.441296 14.279397
2.6471913 20.693316 5.1223397
2.5027919 19.564518 2.8431766
2.4771924 19.391254 0.88225585
0.022665676 0.053861968 5.1840758
0.10977171 0.74090499 4.761869
0.13574047 0.94586301 4.6174598
0.21689127 1.5641185 5.0953088
0.83149827 6.1667428 11.470763
0.058118198 0.29571095 5.0509868
0.083331063 0.52413911 4.9066854
0.16397774 1.1519861 4.5175037
0.33218214 2.3887012 6.6125221
4.4777966 34.197014 27.891581
3.8214514 29.224115 19.407898
4.1893339 32.124588 17.044697
4.6746616 35.894966 14.713291
2.604377 20.080107 3.9357324
2.5140715 19.383821 1.8477139
4.1863136 31.585472 23.283432
4.0146651 30.331009 18.06464
4.4756742 33.950516 15.917782
5.3254619 40.451054 14.289257
2.7118053 20.62612 5.1082721
2.5704243 19.550753 2.8424861
2.5455163 19.387442 0.88245744
0.022853551 0.053782519 5.1840758
0.11235728 0.74051726 4.761869
0.13904132 0.94538343 4.6174598
0.22529426 1.5840414 5.162117
0.8526907 6.1614304 11.466374
0.05915007 0.2955063 5.0509868
0.085160136 0.52384502 4.9066854
0.16799793 1.1514068 4.5175037
0.34076199 2.3892355 6.6172152
4.5992146 34.196609 27.904135
3.5560591 26.475418 17.598532
4.3026204 32.118549 17.049334
4.7987003 35.869236 14.709545
2.673156 20.061155 3.933867
2.5817182 19.374928 1.8477139
4.2856407 31.490562 23.224567
4.1193552 30.30827 18.059574
4.5953732 33.94368 15.921977
5.4501796 40.310547 14.246527
2.7792344 20.582809 5.1000657
2.6300387 19.477863 2.8335071
2.613843 19.38339 0.88265896
0.023020456 0.05366401 5.1790762
0.11494149 0.74012053 4.761869
0.14234048 0.94489229 4.6174598
0.23233059 1.5935848 5.1955204
0.87385625 6.156045 11.461985
0.060122631 0.29501536 5.0459952
0.086988181 0.52354461 4.9066854
0.17220208 1.1520566 4.5223432
0.3490999 2.3880315 6.6172152
4.7217488 34.20348 27.922964
3.6535938 26.500122 17.623205
4.415916 32.112114 17.053972
4.9257703 35.866047 14.715164
2.7351766 19.993299 3.9226756
2.6506836 19.375666 1.8486081
4.3944187 31.467407 23.218681
4.2316756 30.340672 18.08744
4.7157054 33.940918 15.928272
5.5824189 40.230469 14.225161
2.8343842 20.452618 5.0707579
2.6980133 19.468565 2.8335071
2.6821723 19.379095 0.88286042
0.023207638 0.053583324 5.1790762
0.11740208 0.73894751 4.7569294
0.14548248 0.9433834 4.6125646
0.24076009 1.611956 5.2575564
0.89533961 6.1529574 11.461985
0.06115206 0.29480371 5.0459952
0.08881516 0.52323776 4.9066854
0.17622246 1.1514485 4.5223432
0.35743356 2.3867981 6.6172152
4.8438416 34.206059 27.938658
3.756614 26.561731 17.67255
4.5292187 32.105274 17.058609
5.0515833 35.853226 14.717038
2.796073 19.920391 3.9105515
2.7099948 19.307116 1.8432432
5.2343817 36.459629 32.887028
4.5042338 31.451876 23.218681
4.3253517 30.24037 18.036777
4.8354325 33.933235 15.932467
5.6968665 40.028412 14.161064
2.9755306 20.933447 5.1903338
2.7485323 19.336456 2.8162401
2.7519088 19.384457 0.88346511
0.023394538 0.05350199 5.1790762
0.11998077 0.7385332 4.7569294
0.14877461 0.94286984 4.6125646
0.24706277 1.6155324 5.271872
0.91681194 6.1497946 11.461985
0.062180746 0.29458845 5.0459952
0.090641066 0.52292454 4.9066854
0.18024071 1.1508262 4.5223432
0.36602449 2.3872418 6.6219077
1.8206614 12.025013 25.211044
4.7686591 32.728306 32.581413
4.9693637 34.231312 27.973179
3.8229089 26.366377 17.551928
4.6431618 32.102421 17.065565
5.1773663 35.839966 14.718911
2.8578932 19.857025 3.9002926
2.7773726 19.297539 1.8432432
5.3849878 36.599972 33.030025
4.6122332 31.423964 23.209852
3.9450498 26.911013 16.068495
4.9558201 33.929623 15.938762
5.8379207 40.017628 14.164351
3.0710101 21.076849 5.2278485
2.8117282 19.297344 2.8120959
2.8073254 19.290686 0.88003904
0.023602245 0.053458195 5.1840758
0.122558 0.73810989 4.7569294
0.15206493 0.94234478 4.6125646
0.2538552 1.6220338 5.2957325
0.93827313 6.1465569 11.461985
0.063208669 0.29436958 5.0459952
0.092465855 0.52260494 4.9066854
0.18425673 1.1501901 4.5223432
0.37435529 2.3859496 6.6219077
1.8626254 12.018583 25.211044
4.9207821 32.96542 32.83374
5.0859599 34.194504 27.957487
3.9069333 26.299105 17.516287
4.7564912 32.094784 17.070204
5.3031182 35.826256 14.720783
2.9157221 19.769173 3.8853707
2.8338172 19.213827 1.836537
5.5238409 36.654797 33.096535
4.7188902 31.387688 23.195137
4.0376825 26.888554 16.063429
5.0755696 33.921097 15.942959
3.153892 21.128496 5.2430882
2.8702984 19.22864 2.803808
2.8746452 19.280769 0.88003904
0.023788705 0.053375483 5.1840758
0.12513374 0.73767757 4.7569294
0.15551937 0.94281286 4.6174598
0.26069605 1.6285075 5.3195925
0.95972294 6.1432438 11.461985
0.064235829 0.29414716 5.0459952
0.094289534 0.52227902 4.9066854
0.18827051 1.1495399 4.5223432
0.38295504 2.3863323 6.6266007
1.9120672 12.059312 25.310072
5.0369005 32.955086 32.840748
5.2052898 34.17654 27.957487
3.9855044 26.198496 17.458717
4.8704872 32.091122 17.07716
5.4371758 35.867115 14.745133
2.8941743 19.1595 1.8325132
5.6517568 36.635292 33.096535
4.8394928 31.442932 23.248114
4.1531324 27.014898 16.147024
5.1960073 33.91663 15.949253
5.8342977 38.127434 13.513522
3.229094 21.126966 5.2454329
2.9374015 19.218502 2.803808
2.9313745 19.201475 0.87721759
0.023974875 0.053292118 5.1840758
0.12770794 0.73723626 4.7569294
0.15880945 0.9422642 4.6174598
0.26758516 1.634953 5.3434525
0.981161 6.1398563 11.461985
0.065262206 0.29392114 5.0459952
0.09611205 0.52194673 4.9066854
0.19207433 1.1476359 4.5175037
0.39128253 2.3849807 6.6266007
1.9621643 12.101988 25.413599
5.3239574 34.15432 27.954348
4.0795031 26.200949 17.469683
4.9845171 32.087059 17.084116
5.5680289 35.884563 14.760117
3.1189721 20.170685 3.9665089
2.9526649 19.095146 1.8275955
5.7813492 36.626404 33.10651
4.9592814 31.489735 23.295204
5.3164759 33.911736 15.955546
5.9673514 38.106838 13.513522
3.3028212 21.115566 5.2454329
2.9914415 19.1467 0.87540382
0.024160754 0.053208105 5.1840758
0.1304162 0.73755109 4.761869
0.1620976 0.94170415 4.6174598
0.27476874 1.6428423 5.3720841
1.8003618 10.923093 26.139956
1.0022008 6.1340303 11.457596
0.066287778 0.29369155 5.0459952
0.097933397 0.52160805 4.9066854
0.19607915 1.1469585 4.5175037
0.39989075 2.3853023 6.6312933
2.0051079 12.09936 25.422602
5.4413071 34.123997 27.944933
4.189353 26.302174 17.546444
5.0978818 32.078213 17.088755
5.702704 35.924435 14.784467
3.1924322 20.179081 3.9702392
3.0107412 19.030617 1.8226776
5.9139247 36.63549 33.133114
5.0691705 31.472231 23.295204
5.4369726 33.906414 15.961841
6.0973458 38.067127 13.506948
3.3772764 21.108711 5.2466054
3.1035757 19.39801 2.8321257
3.0503738 19.086809 0.87338853
0.024346339 0.053123444 5.1840758
0.13298993 0.73709136 4.761869
0.16538376 0.94113261 4.6174598
0.2812562 1.6462873 5.3864002
1.8413997 10.934081 26.181377
1.0232121 6.1281323 11.453207
0.067378029 0.29373953 5.0509868
0.099753551 0.521263 4.9066854
0.2000816 1.1462671 4.5175037
0.40850589 2.3855929 6.6359863
2.0462399 12.085847 25.409098
5.5653996 34.135529 27.970041
4.2871885 26.324533 17.571117
5.2105346 32.064594 17.091072
5.8288112 35.908878 14.786339
3.2636354 20.172665 3.9711721
3.0763569 19.015074 1.8222305
5.1783414 31.450356 23.292261
4.9828949 30.296282 18.12797
5.5582318 33.905144 15.970233
6.2240825 38.008327 13.493799
3.4517233 21.101589 5.2477775
3.1744664 19.406609 2.8348885
3.1065071 19.011948 0.87076861
0.024531623 0.053038135 5.1840758
0.13556205 0.73662263 4.761869
0.16866793 0.94054955 4.6174598
0.28777102 1.649707 5.4007158
1.878893 10.923735 26.172173
1.0437915 6.1198015 11.444428
0.068402961 0.29350254 5.0509868
0.10157249 0.52091163 4.9066854
0.20408159 1.1455617 4.5175037
0.41683066 2.3841524 6.6359863
2.0895278 12.085067 25.422602
5.6883593 34.138931 27.988873
4.3831711 26.334154 17.587564
5.3246069 32.059322 17.09803
5.9518456 35.874599 14.78072
3.3364358 20.175688 3.9739697
5.2860804 31.420132 23.283432
4.539917 27.013796 16.182489
5.6795492 33.903442 15.978625
6.2592955 37.404194 13.288361
3.5269635 21.099001 5.2501221
3.2519863 19.45402 2.8431766
3.1720295 18.996061 0.87056714
0.024716612 0.052952182 5.1840758
0.13813251 0.73614496 4.761869
0.17213349 0.94095665 4.622355
0.29326606 1.6472228 5.3959441
1.9170126 10.91711 26.172173
1.0643256 6.1114025 11.435651
0.069427058 0.29326198 5.0509868
0.10339019 0.52055389 4.9066854
0.2080791 1.1448423 4.5175037
0.42515036 2.3826828 6.6359863
2.1324565 12.081986 25.431602
5.8114104 34.141888 28.007702
4.4568434 26.211515 17.516287
5.4379644 32.049274 17.102667
6.0584416 35.743904 14.735767
3.4076602 20.168764 3.9749026
3.2928255 19.489082 1.8673855
6.5848918 38.242096 34.642891
5.393671 31.389534 23.274601
4.6290798 26.968044 16.164757
5.8001561 33.896832 15.98492
6.2171702 36.372059 12.93172
3.6014092 21.091351 5.2512946
3.3207068 19.44743 2.8438673
3.2534397 19.073521 0.87419468
0.024901299 0.052865583 5.1840758
0.14070129 0.73565829 4.761869
0.17541699 0.94035 4.622355
0.29901412 1.646189 5.3959441
1.955798 10.914199 26.181377
1.0852326 6.1052918 11.431262
0.070450306 0.29301783 5.0509868
0.10520663 0.52018982 4.9066854
0.21230337 1.145345 4.5223432
0.43377402 2.3828821 6.6406789
2.1753893 12.078753 25.440605
5.933218 34.136734 28.020256
4.5697713 26.319393 17.598532
5.5520735 32.043194 17.109623
6.1831741 35.722538 14.735767
3.4797118 20.166426 3.9767675
3.3633754 19.492193 1.8687267
6.7260985 38.263004 34.682796
5.487843 31.28293 23.209852
4.7321172 27.002672 16.195154
5.9207859 33.88979 15.991213
6.3481531 36.37339 12.939937
3.6766796 21.088228 5.2536392
3.3894217 19.440599 2.844558
3.3311424 19.12603 0.87681454
0.025085684 0.052778337 5.1840758
0.14326836 0.73516268 4.761869
0.17869836 0.93973196 4.622355
0.30475858 1.6451353 5.3959441
1.994235 10.909226 26.18598
1.1056826 6.0967531 11.422483
0.071472704 0.29277015 5.0509868
0.10691388 0.51929742 4.9017143
0.21630007 1.1445969 4.5223432
0.44082892 2.3745668 6.6219077
2.2179322 12.073229 25.445107
6.0537019 34.123482 28.026535
4.6711011 26.356806 17.634171
5.6669769 32.041065 17.118898
6.3094444 35.709866 14.739513
3.5509369 20.158995 3.9777002
3.4339869 19.495045 1.8700678
6.8596201 38.239292 34.682796
4.4395113 24.798119 18.427216
4.9447384 27.64797 16.59033
6.0414371 33.88232 15.997507
6.4775658 36.364956 12.944867
3.7511203 21.080051 5.2548118
3.4589965 19.438402 2.8459394
3.3978844 19.114285 0.87681454
0.025269762 0.05269045 5.1840758
0.1458337 0.73465812 4.761869
0.18197754 0.93910247 4.622355
0.31077644 1.6455282 5.4007158
2.0330193 10.90604 26.195185
1.1265218 6.0905013 11.418094
0.072494224 0.29251885 5.0509868
0.10872592 0.51892108 4.9017143
0.22053204 1.1450691 4.5271826
0.44911504 2.3730135 6.6219077
2.260463 12.067553 25.449608
6.1741648 34.109802 28.03281
4.8159027 26.632483 17.828814
5.7811465 32.034164 17.125854
6.4381695 35.710442 14.748879
3.6230216 20.156147 3.9795656
3.5055404 19.502544 1.8718562
4.5362134 24.83814 18.468422
5.1773968 28.376923 17.036169
6.1621089 33.874424 16.003803
6.6053076 36.346771 12.946511
3.8255486 21.071609 5.2559838
3.5285971 19.435953 2.8473208
3.4628019 19.092476 0.87641144
0.02545353 0.052601922 5.1840758
0.14839724 0.73414457 4.761869
0.18525451 0.93846154 4.622355
0.31736532 1.6488307 5.4150319
2.0714407 10.900795 26.199787
1.147331 6.0841784 11.413705
0.073514864 0.29226401 5.0509868
0.11053663 0.51853836 4.9017143
0.22452775 1.1442924 4.5271826
0.45674184 2.3680425 6.6125221
2.3029811 12.061728 25.454109
6.2953119 34.099522 28.042225
4.9224896 26.689526 17.87816
5.8961391 32.031216 17.13513
6.5703292 35.728786 14.765737
3.6942432 20.148209 3.9804981
3.5744941 19.49509 1.8723034
4.6295471 24.857918 18.494909
4.7189212 25.362364 15.245213
6.2827983 33.866093 16.010096
6.7416077 36.374565 12.964589
3.9008491 21.067688 5.2583284
3.5982227 19.433256 2.848702
3.5303349 19.085186 0.87661302
