# .PCD v0.7 - Point Cloud Data file format
VERSION 0.7
FIELDS x y z
SIZE 4 4 4
TYPE F F F
COUNT 1 1 1
WIDTH 1543
HEIGHT 1
VIEWPOINT 0 0 0 1 0 0 0
POINTS 1543
DATA ascii
0.19945244 -0.11173657 3.7930889
0.36339742 -0.18691978 3.7682114
3.4623251 -1.6975342 10.540368
3.9672754 -1.9357209 9.1912231
3.8906844 -1.885805 4.7654042
3.6287491 -1.7455677 4.0368848
5.2549171 -2.5244639 4.783124
5.1094828 -2.4535046 3.8007321
4.6861987 -2.2482424 2.807266
4.2226739 -2.0249591 1.980414
4.8451905 -2.3224518 1.6692767
3.6144507 -1.7449138 3.6558807
5.1971626 -2.5056641 3.4760637
4.6095567 -2.219398 2.452481
4.1236463 -1.9845597 1.6818998
0.035394266 -0.029548094 3.7641301
3.401798 -1.721771 24.237362
2.9117899 -1.4389327 10.430387
3.7640815 -1.8487744 9.9390697
3.6809545 -1.8015935 7.5776496
2.8354046 -1.3840702 4.7066407
3.6175148 -1.7635355 4.8949876
0.19906121 -0.11243211 3.7930889
0.36274275 -0.18818714 3.7682114
3.4084284 -1.6858902 10.394892
3.9819787 -1.9601336 9.240737
4.768393 -2.3400578 8.7583818
3.5093894 -1.7191634 5.2493815
3.9693518 -1.9410758 4.8683085
4.065382 -1.9731152 4.5205121
5.2705908 -2.5546756 4.8050933
5.0181007 -2.431215 3.7404199
4.750093 -2.2993281 2.8490043
4.2280989 -2.0457437 1.9860331
4.841372 -2.3414388 1.6706866
3.6049809 -1.755885 3.6525552
4.9488769 -2.4083476 4.0910821
5.2000141 -2.5294476 3.4836633
4.6017814 -2.2354748 2.452481
4.1209412 -2.0010045 1.6835433
0.035290904 -0.029671462 3.7641301
3.3950751 -1.7332816 24.232424
2.9027414 -1.4470898 10.416071
3.9956753 -1.9798743 10.565013
3.6853805 -1.8197335 7.5995955
2.8204582 -1.388986 4.6901093
3.6228418 -1.7818109 4.9103379
0.19841729 -0.11298232 3.7880971
0.36161157 -0.18920457 3.7632396
3.3932583 -1.6931546 10.366735
3.9965594 -1.9846724 9.2902508
4.7531838 -2.3532169 8.7455845
3.5222764 -1.7407485 5.2773113
4.005116 -1.9759192 4.9197612
4.0840931 -1.9998411 4.5485482
5.3455596 -2.6140964 4.8804164
4.9382076 -2.4138272 3.6883321
4.7300963 -2.3100629 2.8420477
3.5820746 -1.7602243 3.6359277
4.9912357 -2.4505472 4.1322861
5.3343391 -2.6178536 3.5773909
4.5857992 -2.2475295 2.4482849
4.1478567 -2.0319967 1.6966914
0.035217039 -0.029826231 3.76913
3.3883138 -1.7447665 24.227486
2.9003396 -1.4585547 10.425615
3.9852452 -1.9920627 10.555808
3.700443 -1.8432655 7.6434855
2.7979517 -1.3900582 4.6611786
3.6022441 -1.7873229 4.8911505
0.19802171 -0.11367424 3.7880971
0.36094892 -0.19046569 3.7632396
3.3981171 -1.7104201 10.399585
4.0771933 -2.0424898 9.4928045
4.7309413 -2.3628023 8.7199888
3.4999983 -1.7449659 5.2533712
3.9830191 -1.9823347 4.9013853
5.360836 -2.6447949 4.9023857
4.9297519 -2.4310501 3.6883321
4.7418723 -2.3363495 2.8536417
4.6795111 -2.3046141 2.1958127
3.6327777 -1.8009104 3.692461
5.1358695 -2.5427361 3.453265
4.5738578 -2.2615118 2.4461868
4.1873055 -2.0694778 1.71477
0.035112713 -0.02994898 3.76913
3.3815129 -1.756225 24.222546
2.9005554 -1.4713713 10.444702
3.9992006 -2.0165174 10.611038
3.6854265 -1.8518699 7.6259298
2.7880509 -1.3972946 4.6529126
3.590251 -1.7970167 4.8834753
0.19737446 -0.11421907 3.7831056
0.36028188 -0.19172446 3.7632396
2.4523273 -1.2552601 10.644215
3.4382863 -1.7457104 10.540368
4.138041 -2.0910749 9.6503468
4.7273231 -2.381649 8.7285204
3.5073459 -1.763942 5.2733216
3.9609265 -1.9886203 4.8830094
3.5369947 -1.7626582 3.963289
5.4282327 -2.7016466 4.9714317
4.8650799 -2.4203062 3.6472101
4.8011231 -2.3864064 2.8930614
4.6672864 -2.318872 2.1939399
3.6264691 -1.81358 3.692461
4.6630511 -2.3299572 3.8791742
4.9804144 -2.4874542 3.3570044
4.5578132 -2.2734122 2.4419906
4.1800556 -2.0840816 1.71477
0.035037648 -0.03010333 3.7741296
3.3753619 -1.768018 24.222546
3.364846 -1.7424315 18.240877
2.8954017 -1.4814872 10.444702
3.986913 -2.0278077 10.59723
3.6768036 -1.8636403 7.6215405
2.7454867 -1.3879733 4.5909185
3.5667892 -1.8008702 4.8604503
0.19697456 -0.11490733 3.7831056
0.35961041 -0.19298092 3.7632396
2.4456968 -1.2626593 10.634536
3.4736421 -1.7789412 10.667072
4.1598091 -2.1203365 9.717865
4.7050314 -2.3910465 8.7029257
3.4796696 -1.7652678 5.2414012
3.9327898 -1.9917123 4.8572831
3.4670951 -1.7429572 3.8931983
5.6831346 -2.8533089 5.2099543
4.6398435 -2.3284926 3.4882052
4.800684 -2.4071224 2.8976991
4.6591635 -2.3351498 2.1939399
3.6334512 -1.8329549 3.7057631
4.6332335 -2.3353043 3.8615153
5.0178981 -2.5280991 3.3874025
4.5214701 -2.2750282 2.4273043
4.1516623 -2.0880511 1.7065524
0.034932356 -0.03022545 3.7741296
3.3684831 -1.7794266 24.217607
3.3578403 -1.7536949 18.235981
2.9074564 -1.5004853 10.506739
4.000669 -2.0524137 10.65246
3.4783573 -1.7783382 7.2265239
2.7280908 -1.3911563 4.5702534
3.5147827 -1.7900351 4.7990503
0.19657226 -0.11559421 3.7831056
0.35893461 -0.19423501 3.7632396
2.4345856 -1.2677051 10.605499
3.4888759 -1.8021438 10.732771
4.1485105 -2.132853 9.7088623
4.6757684 -2.3967483 8.6645317
3.457392 -1.7691673 5.2174611
3.9137375 -1.9992591 4.8425827
4.7173491 -2.3921607 5.277494
5.5898027 -2.8309233 5.1346312
4.6578016 -2.3578944 3.5073953
4.804111 -2.4298632 2.9046555
4.6551213 -2.3534906 2.1958127
3.5970814 -1.8303865 3.6758335
4.6466713 -2.3624544 3.8791742
5.0013571 -2.5416932 3.3823361
4.5337367 -2.3010678 2.4377947
4.3001633 -2.1815801 1.7673621
0.034826636 -0.030347204 3.7741296
3.3615651 -1.7908084 24.212666
3.3544014 -1.7668291 18.250668
2.9074972 -1.5133821 10.525826
4.0108314 -2.0753448 10.698485
3.7169189 -1.9167067 7.7312675
2.7382324 -1.4083936 4.5950508
3.4885557 -1.7920408 4.7721877
0.19616756 -0.11627968 3.7831056
0.3582544 -0.19548675 3.7632396
2.4379351 -1.2802869 10.639376
3.4779725 -1.8119192 10.718693
4.1410403 -2.1473212 9.7088623
4.64884 -2.4034727 8.6304045
3.421741 -1.7660228 5.1735706
3.888653 -2.0035918 4.8205314
4.6930952 -2.4004927 5.2599711
5.4343061 -2.7760487 5.0028162
4.5192018 -2.3075833 3.4114439
4.7521944 -2.424473 2.8791485
4.6262279 -2.359195 2.1864479
5.5638018 -2.8556778 5.6511807
4.9369173 -2.5317495 4.1234565
5.0154715 -2.5709345 3.3975353
4.529716 -2.3189473 2.4398925
4.5237274 -2.3148909 1.8577552
0.034691136 -0.030436311 3.76913
3.3552935 -1.8025315 24.212666
3.3473139 -1.7780496 18.245771
2.9233432 -1.534624 10.602179
4.0052948 -2.0902364 10.703088
3.7548256 -1.9528773 7.8234377
2.7807593 -1.4425651 4.6735773
0.19551331 -0.11681455 3.7781138
0.35756984 -0.19673608 3.7632396
2.4367838 -1.2905543 10.653894
3.3952458 -1.7839136 10.484055
4.1875324 -2.1900125 9.834897
4.614984 -2.4064209 8.5834789
3.4823754 -1.8127403 5.2733216
3.7342339 -1.9405518 4.6404486
4.675179 -2.4119546 5.2494574
5.168541 -2.6630745 4.7705703
4.477663 -2.3061132 3.3867707
4.6964359 -2.4167235 2.8513229
4.597352 -2.3647268 2.1770825
5.5272732 -2.8613493 5.6245766
5.0537066 -2.6139622 4.2264676
4.9337106 -2.5508094 3.3494048
4.5538554 -2.3514035 2.456677
4.7086444 -2.4302955 1.9333566
0.034584682 -0.030557221 3.76913
3.3537633 -1.8168238 24.24724
3.3401899 -1.7892424 18.240877
2.9034572 -1.5371356 10.549686
3.9979739 -2.1042047 10.703088
3.7479861 -1.9659721 7.8234377
2.8505073 -1.4914008 4.7975659
3.279948 -1.7139226 4.5074
0.19510436 -0.1174963 3.7781138
0.35734683 -0.19824214 3.7682114
2.4366987 -1.3014214 10.673251
3.3691757 -1.7852501 10.423049
4.1798625 -2.2046163 9.834897
4.6065559 -2.4225156 8.5834789
3.5133774 -1.8444946 5.3291817
3.7064185 -1.9425584 4.6147227
4.6667314 -2.4282591 5.2494574
5.1350374 -2.6685359 4.748601
4.7036986 -2.4412649 2.8605981
4.5726094 -2.3722205 2.1695905
5.5338011 -2.8892665 5.6412044
4.9012036 -2.5568061 4.1087408
4.8750858 -2.5421045 3.3164735
4.5657463 -2.3777668 2.4671674
4.6959438 -2.4445362 1.9317131
0.034477808 -0.030677758 3.76913
3.3453553 -1.827402 24.232424
3.3321321 -1.7999228 18.231087
2.9257257 -1.5620259 10.649898
3.9940562 -2.1199796 10.712294
4.2851706 -2.2668703 8.9514322
2.8851044 -1.5223546 4.8636928
3.251261 -1.7134063 4.4766998
0.19469303 -0.11817664 3.7781138
0.35665265 -0.19948831 3.7682114
2.4343543 -1.3111113 10.68293
3.399451 -1.8165201 10.535675
3.5681667 -1.8891772 5.4209523
3.4838157 -1.8414173 4.3501105
4.6487532 -2.4395628 5.2389436
5.1222434 -2.6846373 4.7454624
4.7836943 -2.5061381 3.6252785
4.7422442 -2.4823217 2.8884239
4.5273323 -2.3688245 2.1527331
5.5567183 -2.9259615 5.674459
5.0925684 -2.679292 4.2735577
4.8165832 -2.5330217 3.2835424
4.7623372 -2.5013201 2.574168
4.5912199 -2.4104266 1.8939124
0.034370512 -0.030797921 3.76913
3.3484843 -1.8443172 24.301573
3.3240404 -1.8105689 18.221296
2.9149985 -1.5693984 10.630811
3.9849093 -2.1329865 10.707691
4.323719 -2.3066156 9.0479918
2.8723199 -1.5284501 4.8512936
3.2594116 -1.7322661 4.4958873
0.19427933 -0.11885551 3.7781138
0.35641816 -0.20099436 3.7731826
2.4297628 -1.3196008 10.68293
3.4097998 -1.8373804 10.587295
3.1073496 -1.6667366 7.3547277
4.458446 -2.3845053 8.3403206
3.5721829 -1.907298 5.4369125
3.4504416 -1.8392144 4.3170342
4.6496654 -2.4607799 5.2494574
5.2814584 -2.7916281 4.8992472
4.7712202 -2.5208676 3.6225369
4.8001466 -2.5340171 2.9278433
4.5313358 -2.3911037 2.1583521
5.5497694 -2.9470916 5.6777844
5.2152944 -2.7671483 4.3824549
4.777245 -2.5336609 3.2632766
4.8097262 -2.5476704 2.6035409
4.582778 -2.4264386 1.8939124
0.034291703 -0.03095039 3.7741296
3.3386295 -1.8541079 24.276876
3.3159153 -1.8211806 18.211506
2.9029434 -1.5760028 10.60695
3.9430554 -2.1283233 10.61564
4.2692404 -2.296731 8.9514322
2.8322537 -1.5198383 4.7934327
3.2250946 -1.7284917 4.4575124
0.19386326 -0.11953296 3.7781138
0.35617751 -0.20250122 3.7781544
2.4240391 -1.3274704 10.678091
3.3957839 -1.8451519 10.563831
3.1072571 -1.6806804 7.3682318
4.1172552 -2.2205379 7.7217603
3.6212189 -1.9497553 5.5207028
3.1717815 -1.6928098 3.6128345
5.2716813 -2.8100471 4.8992472
4.699657 -2.5040801 3.575932
4.7639008 -2.5361853 2.9116118
4.5638871 -2.4286854 2.1770825
5.5295739 -2.961158 5.6678085
5.194912 -2.7796154 4.3736253
4.8101859 -2.572685 3.2911417
4.8968801 -2.6157653 2.6538939
4.5909424 -2.4513175 1.9004865
0.034183457 -0.031069903 3.7741296
2.5321801 -1.417753 18.448553
3.3086474 -1.832251 18.206612
2.8751657 -1.5739402 10.525826
3.9081473 -2.12713 10.542
4.2569871 -2.3093352 8.9426537
2.8393056 -1.5364119 4.8140974
3.2275007 -1.7443107 4.4690247
0.19344483 -0.12020893 3.7781138
0.35546851 -0.20374328 3.7781544
2.4193907 -1.3359238 10.678091
3.3984027 -1.8619696 10.591988
3.1013715 -1.6915165 7.3682318
4.0636573 -2.2099757 7.6364417
3.651464 -1.982513 5.5765634
4.000824 -2.1685994 5.0116401
4.622952 -2.4881098 5.2389436
5.1658454 -2.77683 4.8113704
4.6356368 -2.4907825 3.5348101
4.7511158 -2.5507035 2.9092929
4.6738434 -2.5081732 2.2314005
3.9816663 -2.1501386 4.111474
4.3848028 -2.3658733 3.7114143
4.7746172 -2.5751357 3.2734096
4.8717365 -2.6242332 2.6455019
4.6239357 -2.4897151 1.9169216
0.034074791 -0.031189034 3.7741296
2.5278921 -1.4269652 18.453491
3.3022316 -1.8437891 18.206612
2.8957906 -1.5983949 10.621266
3.8732965 -2.1257195 10.468359
2.8092232 -1.5328344 4.772768
3.2636085 -1.7785738 4.5265875
0.19302405 -0.12088346 3.7781138
0.3547551 -0.20498286 3.7781544
2.4136145 -1.3437494 10.673251
3.3767776 -1.8654758 10.54506
3.1030779 -1.7065282 7.3862362
4.2502913 -2.3307397 7.9990454
3.5493712 -1.9431535 5.4329224
3.9783559 -2.174422 4.9932642
3.1661549 -1.7183137 3.6198435
5.0500412 -2.7373445 4.7140779
4.5827966 -2.4830444 3.5019124
4.7188096 -2.5546186 2.8953803
4.673214 -2.5288854 2.2351465
3.9970903 -2.1765234 4.1347528
4.3800683 -2.3830965 3.7143576
4.7580252 -2.5876675 3.2683432
4.8625464 -2.6412227 2.6455019
4.6567159 -2.5283728 1.9333566
0.033937152 -0.031274807 3.76913
2.5181689 -1.43309 18.418917
3.2966623 -1.8558042 18.211506
2.8980188 -1.6128489 10.649898
3.8709805 -2.1420646 10.482167
4.5070972 -2.4859021 9.5000668
2.7915282 -1.5358485 4.7521033
3.2377167 -1.7791494 4.4997249
0.19260091 -0.1215565 3.7781138
0.35403746 -0.20621994 3.7781544
2.4143896 -1.355243 10.697449
3.4139645 -1.9016051 10.68115
3.0990059 -1.7184054 7.3907375
4.237565 -2.3430378 7.9905143
3.9737108 -2.1899321 4.9969397
4.4897175 -2.4569771 5.1092753
5.0438709 -2.7568226 4.7172165
4.5704322 -2.4970217 3.499171
4.7020874 -2.5668297 2.8907425
4.6643581 -2.5451825 2.2351465
3.9992874 -2.1958535 4.1447291
4.3752666 -2.4003153 3.7173004
4.6733685 -2.5628045 3.2176795
4.7816467 -2.6189365 2.6077368
4.6520038 -2.54688 1.9350002
0.033827778 -0.031393077 3.76913
2.5165207 -1.4438049 18.443613
3.29105 -1.8678031 18.216402
2.8923714 -1.6229551 10.649898
3.8549492 -2.150804 10.459154
4.5130439 -2.509768 9.5307903
3.1698065 -1.7562646 4.4152999
0.19193251 -0.12207206 3.7731223
0.35331544 -0.2074545 3.7781544
2.412926 -1.3655199 10.711967
3.4103153 -1.9152006 10.690536
3.0834885 -1.7239007 7.3682318
2.5596337 -1.42693 4.863584
2.7195203 -1.513595 4.1960149
3.951225 -2.1955562 4.9785638
4.5123377 -2.4898639 5.144321
5.0512619 -2.7838056 4.7329087
4.5946498 -2.5311186 3.523844
4.6620526 -2.5661383 2.8721921
4.6310754 -2.5480404 2.2239084
3.9817982 -2.204375 4.1347528
4.3562508 -2.409704 3.7084711
4.5700817 -2.5269527 3.15435
4.7804217 -2.6399996 2.611933
4.5893421 -2.5334353 1.9136345
0.03371799 -0.031510968 3.76913
2.510793 -1.4521914 18.438675
3.2853937 -1.8797853 18.221296
2.8827915 -1.6308365 10.635583
3.8474181 -2.1642473 10.459154
4.5543919 -2.5536182 9.6361284
2.6554849 -1.4852405 4.5413232
3.0685184 -1.7141693 4.2848248
0.19150524 -0.12274128 3.7731223
0.35213068 -0.20841455 3.7731826
2.4125118 -1.3764263 10.731325
3.3976026 -1.9236921 10.671765
3.1021049 -1.7485504 7.4267473
2.5660048 -1.4422456 4.8849139
2.7063372 -1.5186548 4.1840448
3.9346642 -2.2043638 4.9675379
4.431942 -2.4657211 5.0637164
5.0959506 -2.8316705 4.783124
4.6771708 -2.5979011 3.5923805
4.6182075 -2.5630496 2.8513229
3.9969008 -2.2309995 4.158031
4.5160508 -2.5177004 3.1239519
4.7830729 -2.6632943 2.618227
4.63411 -2.5792947 1.9350002
0.033607788 -0.031628471 3.76913
2.5117495 -1.4644698 18.483128
3.2796943 -1.8917509 18.226192
2.8809707 -1.6431079 10.649898
3.9553971 -2.2432029 10.772126
4.5120921 -2.5506425 9.5659027
2.6551864 -1.4972653 4.5495887
3.0094543 -1.6949834 4.2119122
0.19083381 -0.12325131 3.7681305
0.35094357 -0.20936885 3.7682114
2.4098716 -1.3860927 10.741004
3.3908668 -1.9355402 10.671765
3.1205873 -1.7733512 7.4852633
2.5609546 -1.4511938 4.8849139
2.6957743 -1.5251248 4.1760645
3.935801 -2.2230871 4.9785638
3.5368657 -1.9839318 4.0649209
5.0113297 -2.8075871 4.7140779
4.6753712 -2.6182983 3.5978637
4.6053672 -2.5769916 2.8490043
3.9988511 -2.2504318 4.1680079
4.7726727 -2.6837399 4.0704799
4.6199703 -2.5968165 3.1999471
4.6209602 -2.5931442 1.9333566
0.033497181 -0.031745594 3.76913
2.5106413 -1.4755911 18.512764
3.2739508 -1.9036994 18.231087
3.9475429 -2.2569964 10.772126
4.4511414 -2.5367298 9.4561758
2.6426051 -1.5023521 4.53719
3.0313914 -1.7213051 4.2502871
0.19040242 -0.12391669 3.7681305
0.34975404 -0.2103174 3.7632396
2.402844 -1.3932351 10.731325
3.3825941 -1.946504 10.667072
3.1068223 -1.7799044 7.467258
2.5468154 -1.4549494 4.8678503
2.6904342 -1.5345255 4.1760645
3.9250708 -2.2351344 4.9748883
3.9427798 -2.2297559 4.5310254
4.950664 -2.7963486 4.6670012
4.6552801 -2.6284349 3.5896394
4.7159467 -2.660527 2.920887
4.0039606 -2.2717469 4.1813097
4.7703085 -2.7043705 4.0763659
4.6596332 -2.6405571 3.2328784
4.6118803 -2.6092587 1.9333566
0.033386163 -0.031862326 3.76913
2.509486 -1.4867225 18.542398
3.2681642 -1.9156309 18.235981
2.9598286 -1.7155833 10.983937
3.9464109 -2.2746649 10.790537
2.6397862 -1.5129668 4.5413232
3.0225828 -1.7302837 4.2464495
0.18972799 -0.12442119 3.763139
0.34901774 -0.211537 3.7632396
2.393625 -1.3990766 10.711967
3.3638375 -1.9513719 10.62953
3.0987051 -1.7896496 7.4627571
2.5439813 -1.4651324 4.8721161
2.7425294 -1.5769531 4.2638454
3.9290054 -2.2555735 4.9895892
3.9380705 -2.2452717 4.5345302
4.8394027 -2.7558291 4.5728474
4.6678796 -2.6570799 3.6060879
4.5641608 -2.5959394 2.8350914
4.0219345 -2.3005404 4.2079139
4.7117095 -2.6929255 4.035162
4.6803317 -2.6739135 3.253144
0.033302605 -0.032012247 3.7741296
2.5036142 -1.4950747 18.53746
3.2623341 -1.9275454 18.240877
2.9538221 -1.7259046 10.983937
3.9418249 -2.2903895 10.799742
3.5981259 -2.0839851 7.6873765
2.6101236 -1.5080934 4.4999933
2.9360175 -1.694362 4.1351619
0.18929254 -0.12508272 3.763139
0.34782264 -0.21247564 3.7582684
2.3800633 -1.4023181 10.673251
3.3331714 -1.9491633 10.554446
3.069864 -1.7873108 7.4087429
2.5365958 -1.4726938 4.8678503
2.7552564 -1.597095 4.2917752
3.9504499 -2.2862558 5.026341
3.9487603 -2.2696674 4.5555573
4.9040165 -2.8153391 4.6418934
4.6404428 -2.6629515 3.5923805
4.7510586 -2.7242346 2.9533503
4.0009418 -2.3071048 4.1946115
4.6532497 -2.6811049 3.9939578
4.5663748 -2.629993 3.182215
0.033190656 -0.032128297 3.7741296
2.4990454 -1.5042056 18.542398
3.2555859 -1.9389215 18.240877
2.925915 -1.7233256 10.902813
3.9253774 -2.2991977 10.776729
4.0417075 -2.3597927 8.6441965
2.6170013 -1.524277 4.520658
2.9577904 -1.7207185 4.1735373
0.18861516 -0.12558164 3.7581472
0.34662521 -0.21340854 3.7532966
2.378396 -1.4125434 10.68777
3.2966156 -1.9432591 10.460591
3.1987824 -1.8773547 7.73283
2.5314398 -1.4815391 4.8678503
2.7106404 -1.5838989 4.231925
3.8458138 -2.2436552 4.9050603
3.9654989 -2.2977409 4.5835934
4.9211097 -2.8480375 4.6670012
4.6238804 -2.6749456 3.5868979
4.7415199 -2.7408023 2.9533503
3.9702675 -2.3079212 4.1713328
4.416676 -2.5653708 3.8026521
4.5347991 -2.6329296 3.167016
0.033078309 -0.03224396 3.7741296
2.4937794 -1.5129198 18.542398
3.2496705 -1.9507976 18.245771
2.9147472 -1.73048 10.883725
3.8584476 -2.2781198 10.61564
4.0685344 -2.3945389 8.7188101
2.6262245 -1.5419517 4.5454555
2.9075282 -1.705089 4.1121368
0.18793663 -0.12607738 3.7531557
0.34587815 -0.21461718 3.7532966
2.3766861 -1.4227741 10.702289
3.2631092 -1.9388869 10.376121
3.3121197 -1.9594519 8.0209074
2.5195141 -1.4863911 4.8550525
2.6921136 -1.5857044 4.2119751
3.6918454 -2.1711359 4.721302
3.9759305 -2.3223617 4.6046209
4.9313102 -2.8769667 4.685832
4.6072907 -2.686857 3.5814147
4.7319241 -2.7573366 2.9533503
3.9525235 -2.316103 4.1613564
4.3309569 -2.5358405 3.7379029
4.4623337 -2.6117251 3.1239519
0.032965552 -0.032359231 3.7741296
2.4891465 -1.5220209 18.547338
3.2428412 -1.9621292 18.245771
2.886915 -1.7276121 10.802601
3.8420782 -2.2865787 10.592628
3.9921784 -2.3683991 8.5739708
2.6280911 -1.5554096 4.5578547
2.9705377 -1.7560056 4.2080746
0.1874954 -0.12673263 3.7531557
0.34512693 -0.21582322 3.7532966
2.3749337 -1.4330099 10.716806
3.2267125 -1.9325308 10.282266
2.5120687 -1.4938436 4.8507867
3.4586661 -2.053534 5.4010019
3.5763433 -2.1200447 4.5853209
3.9831655 -2.3452735 4.6221437
4.9279475 -2.8981087 4.6921086
4.6411405 -2.7283521 3.6143126
4.6726155 -2.7446699 2.9232059
3.902622 -2.3051991 4.118125
4.3232422 -2.5506189 3.0352907
0.032852396 -0.032474101 3.7741296
2.4838183 -1.5307004 18.547338
3.2359724 -1.973437 18.245771
2.8949268 -1.7461603 10.855093
3.7888396 -2.27284 10.468359
3.6632311 -2.1905634 7.8892746
2.6443951 -1.5775493 4.5950508
3.1406114 -1.8713714 4.4536748
0.18681398 -0.12722278 3.7481639
0.34437144 -0.21702662 3.7532966
2.370991 -1.4419444 10.721645
3.2051737 -1.9348634 10.235337
3.4618192 -2.071784 5.4169626
3.798826 -2.2698929 4.875659
4.0086889 -2.3791854 4.6606936
4.9178014 -2.915293 4.6921086
4.6315885 -2.7445359 3.6143126
4.6210775 -2.7361376 2.8976991
3.9362578 -2.3436401 4.1613564
5.0773678 -3.0206773 4.3853979
4.4328766 -2.636204 3.1163523
0.032738842 -0.032588582 3.7741296
2.4784601 -1.5393614 18.547338
3.2299318 -1.9852539 18.250668
2.8786101 -1.7500509 10.816917
3.7273853 -2.2537034 10.321078
2.6244032 -1.5780696 4.5702534
3.1477988 -1.8905746 4.4728622
0.18636876 -0.12787411 3.7481639
0.34406143 -0.21851364 3.7582684
2.3627286 -1.4482412 10.707129
3.1969264 -1.945143 10.230645
2.8780818 -1.7436036 7.0216379
3.3745818 -2.0356057 5.2932715
3.8867149 -2.3408601 4.9969397
4.0064802 -2.3968253 4.6677027
4.9009128 -2.9284487 4.685832
4.6973658 -2.8057146 3.6718831
4.5658522 -2.7250082 2.8698733
3.9408586 -2.3650513 4.1746588
5.0667925 -3.0383823 4.3853979
4.4902005 -2.6915557 3.1619496
0.032624885 -0.032702662 3.7741296
2.4730716 -1.5480034 18.547338
3.2229824 -1.9965163 18.250668
2.8737566 -1.7608684 10.82169
3.6594386 -2.230099 10.155388
3.5659745 -2.1663427 7.7137108
2.6044395 -1.5784693 4.5454555
3.102793 -1.878312 4.4191375
0.18568452 -0.12835866 3.7431724
0.34374526 -0.22000112 3.7632396
2.3565896 -1.455819 10.702289
3.2033565 -1.9644099 10.27288
2.8794093 -1.7581774 7.0396428
3.3726048 -2.0505035 5.3012514
3.9248874 -2.3825603 5.0557423
3.9889276 -2.4052715 4.6571889
4.9039974 -2.9535711 4.6983857
4.6947083 -2.8264081 3.6773663
4.4803944 -2.6952593 2.8234975
3.9677215 -2.4000509 4.2112393
4.4660196 -2.6982963 3.1518168
0.032510534 -0.032816347 3.7741296
2.467653 -1.5566266 18.547338
3.2159936 -2.0077546 18.250668
2.8599725 -1.7661827 10.793058
3.6216674 -2.2244539 10.072543
3.5645182 -2.182529 7.7268786
2.6253293 -1.6036875 4.5909185
3.0880094 -1.8841227 4.4076247
0.18523534 -0.12900604 3.7431724
0.34297523 -0.22119966 3.7632396
2.3504264 -1.4633719 10.697449
3.1920764 -1.9728578 10.258801
2.8621311 -1.7613716 7.0126357
3.3834112 -2.0732846 5.3291817
3.9194388 -2.3980155 5.0594172
3.9347939 -2.3913975 4.6046209
4.8936577 -2.9706709 4.6983857
4.6705141 -2.8341017 3.6664004
4.5391412 -2.752224 2.8652358
3.9465675 -2.4061115 4.1979375
4.3688865 -2.66151 3.8085387
4.4565735 -2.7138693 3.1518168
0.032395788 -0.032929629 3.7741296
2.4615486 -1.5648137 18.542398
3.2098272 -2.0195103 18.255562
2.8613935 -1.780888 10.82169
3.5607245 -2.2041757 9.9252615
3.58745 -2.213825 7.7927146
2.6101303 -1.6069406 4.5743866
3.0896044 -1.8999275 4.4191375
0.18478388 -0.12965184 3.7431724
0.34220099 -0.22239552 3.7632396
2.3442392 -1.4708993 10.69261
3.1880999 -1.9858131 10.268188
2.8763149 -1.7839741 7.062149
3.3248794 -2.0534148 5.2493815
3.8808067 -2.3771753 4.5520525
4.5571456 -2.7871184 3.5868979
4.5862041 -2.802701 2.9000177
3.9445071 -2.4237823 4.2045879
4.3836808 -2.6915486 3.8291407
4.4323773 -2.7203894 3.1416843
0.032307442 -0.033076946 3.7791295
2.4547627 -1.5725582 18.53252
3.2018983 -2.0301571 18.250668
2.8412499 -1.7821398 10.769197
3.5447216 -2.2114213 9.9022493
3.5878356 -2.2313936 7.8102713
2.6451538 -1.6412648 4.6446466
3.0938511 -1.9174548 4.4344873
0.18433018 -0.13029607 3.7431724
0.34142262 -0.22358868 3.7632396
2.340153 -1.4797451 10.697449
3.1811485 -1.9969296 10.268188
2.910681 -1.8193897 7.1611757
3.2383881 -2.0156465 5.1256905
3.280652 -2.0387924 4.2655816
3.8512435 -2.3775938 4.5275211
4.5779381 -2.8229365 4.4190631
4.4975557 -2.7722914 3.5485172
4.648057 -2.8628321 2.9440751
3.9391968 -2.4395025 4.2079139
4.3433247 -2.6876912 3.8026521
4.4155221 -2.7313089 3.1366177
0.032191787 -0.033189517 3.7791295
2.4505641 -1.5819603 18.542398
3.1947923 -2.0413215 18.250668
2.8186092 -1.7816776 10.707162
3.5535197 -2.23418 9.9482746
3.5719075 -2.238816 7.7927146
2.6584961 -1.6624244 4.6777105
3.1034503 -1.938431 4.4575124
0.18387425 -0.13093871 3.7431724
0.34064004 -0.22477911 3.7632396
2.3349733 -1.4879048 10.697449
3.1741586 -2.0080216 10.268188
2.9190478 -1.8388216 7.1971855
3.1062555 -1.9484775 4.9301796
3.2792618 -2.0538304 4.2729321
3.8065851 -2.3684144 4.4854665
4.5680561 -2.8388994 4.4190631
4.5837512 -2.8475504 3.6225369
4.6380353 -2.8790395 2.9440751
3.9401596 -2.4591689 4.2178903
4.5328379 -2.8268948 3.9733553
4.3986449 -2.7421443 3.1315515
0.032075737 -0.033301689 3.7791295
2.4469812 -1.5917761 18.557217
3.1867909 -2.0519097 18.245771
2.8060782 -1.7874951 10.683302
3.544049 -2.2455249 9.9436722
3.5620458 -2.2499914 7.7883253
2.6717222 -1.6836969 4.7107739
3.0939524 -1.9475448 4.4536748
0.18341607 -0.13157974 3.7431724
0.3394098 -0.22567119 3.7582684
2.3308229 -1.4967254 10.702289
3.1656747 -2.0181618 10.263494
2.9144492 -1.8501667 7.2016869
3.7694392 -2.3865373 7.3676877
3.0841529 -1.9496477 4.906239
3.2835402 -2.0725031 4.2876329
4.5581188 -2.8548274 4.4190631
4.6092238 -2.8857224 3.6499515
4.6016688 -2.8787658 2.9278433
3.928391 -2.4709196 4.2145643
4.58112 -2.8792655 4.0233893
4.3890462 -2.7574816 3.1315515
0.031959295 -0.033413447 3.7791295
2.4459584 -1.6032901 18.591791
3.1787553 -2.0624669 18.240877
2.7684186 -1.7771188 10.564002
3.5114899 -2.2421107 9.8746338
3.5501299 -2.2598398 7.7795477
2.7062111 -1.71866 4.781034
3.1142011 -1.9755027 4.4920502
0.18295565 -0.13221918 3.7431724
0.33861998 -0.22685458 3.7582684
2.3245289 -1.5041695 10.697449
3.1513515 -2.0245357 10.24003
2.885968 -1.8462503 7.1476722
3.7039218 -2.3632069 7.256773
3.1205318 -1.9879247 4.9740696
3.8626883 -2.4569566 5.0410414
3.3256865 -2.1015446 3.9457662
4.6132684 -2.9107192 3.6609173
4.5878448 -2.8924484 2.9255247
3.9008205 -2.4726231 4.1946115
4.6120172 -2.9211931 4.0587072
4.3830361 -2.7750916 3.1340847
0.031816151 -0.033489998 3.7741296
2.4468298 -1.6161011 18.641184
3.1715367 -2.0735505 18.240877
2.7647049 -1.7883934 10.573546
3.5414293 -2.2786694 9.9804916
3.5482671 -2.2760975 7.7927146
2.7025654 -1.7296127 4.7851667
3.0289698 -1.9362952 4.3807626
0.182493 -0.13285702 3.7431724
0.33782604 -0.22803518 3.7582684
2.3192644 -1.5122744 10.697449
3.1384711 -2.0317721 10.22126
2.8612092 -1.8445172 7.1026602
3.6561632 -2.3507326 7.179986
3.1414661 -2.016712 5.0179601
3.8369634 -2.4594476 5.0189905
3.3183305 -2.1131406 3.9457662
3.9534893 -2.5147293 3.8604181
4.6136656 -2.9335353 3.6691418
4.5777206 -2.9084454 2.9255247
3.8606999 -2.4661245 4.1613564
4.4791374 -2.8589838 3.9527533
4.3951268 -2.8042867 3.1492836
0.031699054 -0.033600852 3.7741296
2.440527 -1.6242019 18.636246
3.1642792 -2.0846086 18.240877
2.7884567 -1.8175969 10.688074
3.5432887 -2.2973945 10.008107
3.5201874 -2.2754676 7.7488246
2.6681333 -1.7207335 4.7355714
3.0275817 -1.950328 4.3884373
0.18202813 -0.13349323 3.7431724
0.33746845 -0.22951327 3.7632396
2.3118706 -1.5189804 10.68777
3.1169069 -2.0332863 10.174332
2.854753 -1.8544934 7.1026602
3.5822728 -2.3209367 7.0520086
3.1875374 -2.0620368 5.1017504
3.0651639 -1.979851 4.0340462
3.938134 -2.5243134 3.854141
4.6597285 -2.9857168 3.7130053
4.4593515 -2.8551376 2.8582795
3.8018351 -2.4472501 4.1081486
4.46913 -2.8746014 3.9527533
4.3925633 -2.8242743 3.15435
0.031555507 -0.033676311 3.76913
2.4380691 -1.6348749 18.660942
3.1578314 -2.0962043 18.245771
2.7908285 -1.8330561 10.721478
3.5401545 -2.3129549 10.021914
3.5021887 -2.2812052 7.7268786
2.6196396 -1.7024345 4.6611786
3.0637703 -1.9888082 4.4498372
0.18132961 -0.13395524 3.7381806
0.33666524 -0.23068987 3.7632396
2.3055062 -1.5263472 10.68293
3.1097903 -2.0441537 10.174332
2.8646548 -1.875178 7.1431713
4.270781 -2.7882488 8.4128418
3.0566311 -1.9925189 4.906239
3.0582342 -1.9905385 4.0340462
3.6838157 -2.3822 4.3908434
3.9325681 -2.5401566 3.8572795
4.6949444 -3.0314505 3.7486444
4.3116331 -2.7818267 2.7724841
3.7901373 -2.4584744 4.1048231
4.4149747 -2.8616035 3.9144921
4.4260917 -2.8677185 3.1847482
0.031411812 -0.033751175 3.7641301
2.4323475 -1.6433754 18.660942
3.1479561 -2.105516 18.231087
2.7831683 -1.8419631 10.716706
3.5744848 -2.3532305 10.141581
3.54426 -2.3262715 7.8366055
2.6395764 -1.7285267 4.7066407
3.2553024 -2.1293311 4.7338128
0.18063009 -0.13441402 3.7331891
0.33585793 -0.23186363 3.7632396
2.2959819 -1.5315953 10.663573
3.1141453 -2.0626204 10.211874
2.8580918 -1.8851662 7.1431713
4.2043734 -2.7658715 8.3019276
2.9866948 -1.9618177 4.8064885
3.0399282 -1.9937644 4.0193458
3.6874294 -2.4028325 4.4048619
3.9073665 -2.5432518 3.8415871
4.624752 -3.0090532 3.7020395
4.3316078 -2.8161771 2.7910345
4.2628255 -2.7841649 3.7908795
4.3907871 -2.8666544 3.167016
0.031293806 -0.033860616 3.7641301
2.4253118 -1.6509814 18.651062
3.1380546 -2.1147842 18.216402
2.8090098 -1.8732007 10.840777
3.5662489 -2.3656933 10.141581
3.5341203 -2.3373079 7.8322163
2.6593628 -1.754779 4.7521033
3.1434782 -2.071887 4.5841498
0.17992957 -0.13486953 3.7281973
0.33548382 -0.23333943 3.7682114
2.2906215 -1.5396004 10.663573
3.1141031 -2.0782678 10.235337
2.853307 -1.8963362 7.1476722
3.1230533 -2.0670297 5.0339203
3.8361897 -2.5352104 5.0630922
3.5627587 -2.3393497 4.2681847
3.9082291 -2.5632794 3.8510025
4.5792513 -3.0022516 3.6746247
4.3847432 -2.8725481 2.8304539
3.0775216 -2.026891 3.3632367
4.2632103 -2.8056946 3.7997091
4.3771529 -2.8795946 3.1644828
0.031175422 -0.033969648 3.7641301
2.4182525 -1.6585581 18.641184
3.1247571 -2.1217213 18.182135
2.8297114 -1.9013104 10.945762
4.4606509 -2.9725332 9.8906946
2.6602514 -1.7687254 4.764502
3.0427759 -2.020782 4.4498372
0.17945769 -0.13549678 3.7281973
0.3346673 -0.23450905 3.7682114
2.2800295 -1.5440621 10.639376
3.1469254 -2.1160891 10.366735
2.9353011 -1.9656403 7.3682318
3.5863869 -2.3953521 7.1245294
3.221108 -2.1481378 5.2015009
3.8414259 -2.557981 5.0814681
3.4950876 -2.3124154 4.1980939
3.9025049 -2.5790524 3.854141
4.4361668 -2.9306335 3.5704489
4.3525076 -2.8731935 2.8165412
3.0299842 -2.0107813 3.3200052
4.3274999 -2.8697035 3.8644586
4.3383303 -2.8758018 3.1442175
0.031056654 -0.034078263 3.7641301
2.411809 -1.6665475 18.636246
3.1122897 -2.1291661 18.152763
2.8440702 -1.9254032 11.026885
3.4281149 -2.308682 9.7963915
4.4422941 -2.9827454 9.8731375
2.6657503 -1.7858316 4.7851667
2.9957464 -2.0046523 4.3922749
0.17898363 -0.13612238 3.7281973
0.33341148 -0.23536795 3.7632396
2.2798173 -1.5555544 10.663573
3.1180906 -2.1125414 10.296344
2.9284217 -1.9758743 7.3682318
3.6126227 -2.4311543 7.1927843
3.3361411 -2.2417195 5.3970122
3.0076222 -2.0179331 4.0046449
3.4187462 -2.2791026 4.1174889
3.8967183 -2.5948162 3.8572795
4.3702178 -2.9090292 3.5265856
4.331387 -2.8810091 2.8095849
2.9763901 -1.9902139 3.2701228
4.3577862 -2.9117396 3.8997765
4.306757 -2.8765616 3.1290183
0.030962965 -0.034221902 3.76913
2.405977 -1.6749561 18.636246
3.101485 -2.1377053 18.133183
2.8287001 -1.929431 10.993482
3.4184189 -2.3195372 9.7917891
3.4281209 -2.3191648 7.6522641
2.6711624 -1.8029982 4.8058314
2.986073 -2.0133052 4.3884373
0.17850737 -0.13674632 3.7281973
0.33258787 -0.23653033 3.7632396
2.2836955 -1.5699122 10.707129
3.0836179 -2.1049266 10.207181
2.8278913 -1.9224397 7.1341686
3.6170657 -2.4525321 7.2183795
3.5179274 -2.3817413 5.700254
3.0117943 -2.0360141 4.0193458
3.3397207 -2.2432973 4.03338
3.8876371 -2.6084025 3.8572795
4.2419658 -2.8450754 3.4333756
4.3065848 -2.886246 2.8003097
3.034452 -2.0444031 3.3399582
4.3308311 -2.9156468 3.8850608
4.2895365 -2.8867638 3.1239519
0.030843321 -0.034329776 3.76913
2.4001157 -1.6833444 18.636246
3.0822961 -2.1403871 18.06465
2.8207176 -1.9384478 10.988709
3.3328888 -2.2785299 9.5708675
3.3685513 -2.2960446 7.5381479
2.67416 -1.8186413 4.8223634
2.9816782 -2.0255175 4.3922749
0.17825674 -0.13754597 3.7331891
0.3317602 -0.23768984 3.7632396
2.2885342 -1.5850315 10.755522
3.0648768 -2.1078541 10.169639
3.8448892 -2.6335208 9.6998606
3.580488 -2.4460175 7.1629229
3.5618663 -2.4296656 5.7840443
3.0074711 -2.0484233 4.0230207
3.4588671 -2.3408928 4.1840754
3.8817327 -2.6241367 3.8604181
4.1731119 -2.8200638 3.3867707
4.307497 -2.9086978 2.807266
3.0551 -2.0738564 3.3698876
4.2830014 -2.9041388 3.1264851
0.0307233 -0.034437228 3.76913
2.3942251 -1.691712 18.636246
3.0672975 -2.1458797 18.020592
2.7992072 -1.9380847 10.931445
3.2991726 -2.272418 9.4972277
3.3881552 -2.3267708 7.5995955
2.6561887 -1.8200115 4.8016987
2.9587197 -2.0250506 4.3692498
0.17777552 -0.13816737 3.7331891
0.33049658 -0.23853405 3.7582684
2.2840183 -1.5937296 10.760361
3.0433164 -2.108711 10.122711
3.8768818 -2.6753647 9.8033886
3.5482965 -2.442235 7.1159973
3.5185974 -2.4181902 5.7281842
3.0030978 -2.0608273 4.0266962
3.5243354 -2.4031813 4.2716894
3.9175868 -2.6683471 3.9043562
4.1597867 -2.8322606 3.3840294
4.2204051 -2.8713877 2.7585711
3.0385969 -2.0781846 3.359911
4.0934591 -2.7975652 3.6937551
4.287076 -2.9287987 3.1366177
0.03057782 -0.03450856 3.7641301
2.3851404 -1.6978058 18.611547
3.0489693 -2.148947 17.956953
2.7850795 -1.9427198 10.902813
3.2896154 -2.2828064 9.4926243
3.4036467 -2.3549364 7.6522641
2.9120531 -2.0080721 4.3116875
0.17729215 -0.13878708 3.7331891
0.32966194 -0.23968624 3.7582684
2.2774131 -1.6009697 10.755522
3.0373521 -2.1203089 10.127404
2.8254788 -1.9643745 7.1791806
3.5526092 -2.4635236 7.1415935
3.458111 -2.3944345 5.6443939
3.0042515 -2.0770812 4.0377216
3.4982889 -2.403352 4.2506618
3.9307139 -2.6974227 3.9263256
4.1774597 -2.8656864 3.405961
4.2140102 -2.8886068 2.76089
3.0190258 -2.0803041 3.3466091
4.063694 -2.7980833 3.6760964
4.3052344 -2.9632988 3.1568832
0.030457178 -0.034615085 3.7641301
2.3804622 -1.707027 18.621426
3.0356383 -2.1554501 17.922688
2.7721753 -1.9481382 10.878954
3.3328631 -2.3300982 9.639905
3.3954058 -2.3668029 7.6522641
4.0780358 -2.836339 7.3682599
2.9023936 -2.016396 4.3078494
0.1768066 -0.1394051 3.7331891
0.32882327 -0.2408355 3.7582684
2.2728364 -1.6096362 10.760361
3.0327551 -2.132884 10.13679
2.8203878 -1.9754744 7.183682
4.1212306 -2.8791988 8.293395
3.3409932 -2.3306339 5.4688325
3.0220189 -2.104995 4.0707979
3.4693518 -2.401341 4.22613
3.9372818 -2.7221944 3.9420176
4.2465467 -2.9349313 3.4690146
4.4116673 -3.0467877 2.8930614
2.9626725 -2.056761 3.2934012
4.2332416 -2.9366636 3.835027
4.755374 -3.2976568 3.4861965
0.03033616 -0.034721192 3.7641301
2.3631527 -1.7071347 18.53252
3.0289242 -2.1666257 17.927584
2.7507391 -1.9474522 10.82169
3.3342922 -2.3484678 9.6675205
3.3871233 -2.3786407 7.6522641
4.1257243 -2.890928 7.4715838
2.9688623 -2.0779786 4.4152999
0.17631891 -0.14002141 3.7331891
0.32798058 -0.24198186 3.7582684
2.2682271 -1.6182899 10.765201
3.0224757 -2.1414618 10.127404
2.7921309 -1.9702452 7.1296678
4.0535717 -2.8530369 8.178215
3.2218995 -2.2643132 5.2892814
2.9785774 -2.0902145 4.0230207
3.4580231 -2.4113967 4.2226253
3.9149802 -2.7270226 3.9294639
4.2225499 -2.9401791 3.4580488
4.8991647 -3.4087861 3.210737
2.90958 -2.0349898 3.2435184
4.259408 -2.9768927 3.8674016
4.8498478 -3.3883023 3.5621917
0.030190069 -0.034790907 3.7591305
2.3534102 -1.7126299 18.502886
3.0229948 -2.1783764 17.937374
2.7439244 -1.9570422 10.82169
3.404144 -2.4154916 9.8930435
4.15694 -2.9409955 9.3991175
2.4925847 -1.7595465 4.5537219
3.0270774 -2.1345079 4.5112371
0.17582908 -0.14063603 3.7331891
0.32670641 -0.24280684 3.7532966
2.2666471 -1.6291326 10.784558
3.0163865 -2.1530018 10.132097
2.7887852 -1.9825023 7.13867
3.6266069 -2.5714924 7.342092
3.1033106 -2.1971905 5.1097302
2.9878726 -2.1123414 4.0450721
3.397059 -2.3865507 4.1595435
3.593204 -2.5215561 3.6218951
4.3046861 -3.0197375 3.5320685
5.1447787 -3.6064005 3.3753719
2.8933024 -2.0386822 3.233542
4.3117847 -3.0359569 3.9233217
4.70051 -3.3084443 3.4633977
0.03006844 -0.034896076 3.7591305
2.3411512 -1.7162398 18.453491
3.0145481 -2.1883168 17.932478
2.7358642 -1.9657372 10.816917
3.3972812 -2.4284961 9.8976469
4.0764384 -2.9054446 9.2411108
2.4726679 -1.758451 4.528924
3.0797074 -2.1877558 4.5995002
0.17511308 -0.14106682 3.7281973
0.32585689 -0.24394578 3.7532966
2.2609463 -1.6370347 10.784558
3.0158579 -2.1685553 10.15556
2.6827362 -1.9212416 6.8866014
3.5475769 -2.5341089 7.2013164
3.0220277 -2.1555157 4.9900298
2.952867 -2.1030908 4.0083203
3.2431622 -2.2953804 3.9843161
3.196636 -2.2599514 3.2390034
4.6048589 -3.2543545 3.7815418
5.1321588 -3.6243372 3.3753719
2.8861685 -2.048769 3.233542
4.2220378 -2.9948633 3.8526859
4.4251981 -3.1378205 3.2734096
0.029946448 -0.035000823 3.7591305
2.3307714 -1.7211701 18.418917
3.0077136 -2.1994276 17.937374
2.7289858 -1.9752752 10.816917
3.3982952 -2.44719 9.9252615
3.2958846 -2.3664846 7.5030355
2.4893901 -1.7834607 4.5702534
3.0147088 -2.1574543 4.5150747
0.1746196 -0.14167722 3.7281973
0.32415283 -0.24443895 3.7433536
2.2653732 -1.6523247 10.832952
3.0026801 -2.17502 10.13679
2.6883717 -1.9395107 6.9181104
3.4857881 -2.5083928 7.0946679
2.8945816 -2.0798919 4.7945185
2.9262266 -2.099551 3.982594
2.9679894 -2.1162078 3.6618979
3.1823871 -2.2665801 3.2327266
4.3141561 -3.071543 3.5567417
5.1014285 -3.6293895 3.3637779
2.8789995 -2.0588315 3.233542
4.2016926 -3.0025325 3.8438563
4.807085 -3.4338918 3.5571256
0.029824091 -0.035105143 3.7591305
2.3153987 -1.7223383 18.34483
3.0000176 -2.209913 17.937374
2.7232802 -1.9856685 10.82169
3.4071274 -2.471657 9.9758892
3.192518 -2.309195 7.2879705
2.4831495 -1.7921394 4.5702534
2.9967597 -2.1604664 4.4997249
0.17390126 -0.14210223 3.7232058
0.32287347 -0.2452461 3.7383823
2.2484498 -1.6520349 10.779719
2.9950695 -2.185488 10.13679
2.685107 -1.9514428 6.9271126
3.4073296 -2.4700303 6.9538922
2.8165188 -2.0387433 4.6788077
2.9161325 -2.1077664 3.9789188
2.9026554 -2.0849445 3.5918071
3.1807806 -2.282213 3.2390034
4.0010037 -2.8696837 3.3127513
5.056324 -3.6239495 3.3429086
2.8717952 -2.0688684 3.233542
4.1058955 -2.9557807 3.7673342
4.7950697 -3.4506507 3.5571256
0.029701369 -0.035209034 3.7591305
2.3106158 -1.7313421 18.354706
2.9922853 -2.2203715 17.937374
2.7163322 -1.9951626 10.82169
3.3874376 -2.475466 9.9436722
3.2792835 -2.3894365 7.5030355
2.4996388 -1.8173445 4.6115828
2.9502985 -2.1426609 4.4421625
0.17340417 -0.14270838 3.7232058
0.32159239 -0.24604727 3.7334106
2.2386281 -1.6568818 10.760361
2.9693472 -2.1826422 10.075785
2.737999 -2.004528 7.0801539
3.4113243 -2.4911377 6.9794874
2.7752995 -2.0237067 4.6229472
2.9224603 -2.1279106 3.9972947
2.8722465 -2.0783384 3.5637708
3.1791041 -2.2978623 3.2452805
3.9502912 -2.8542454 3.2798536
5.0472345 -3.6441708 3.3452275
2.9310365 -2.1271279 3.3067031
4.0137506 -2.9107707 3.6937551
4.8248768 -3.4977293 3.5875237
0.029554209 -0.035276111 3.7541304
2.3014574 -1.7370563 18.330009
2.9845166 -2.230803 17.937374
2.7165508 -2.0099595 10.850321
3.3536029 -2.4687433 9.8700314
3.3230512 -2.4391329 7.6215405
2.506901 -1.8360355 4.6363807
2.9583223 -2.1643016 4.4651871
0.17268352 -0.14312759 3.718214
0.3203097 -0.24684252 3.7284393
2.2247696 -1.658675 10.721645
2.9450681 -2.1806703 10.01947
2.7730324 -2.0450847 7.1881828
3.3921037 -2.4953032 6.958158
2.7560763 -2.0244627 4.6029978
2.9232156 -2.1441143 4.0083203
3.1867967 -2.3204012 3.2609727
3.9166389 -2.8507919 3.2606635
2.9868908 -2.1836219 3.3765388
3.9937737 -2.9176104 3.6849258
4.0885258 -2.9857435 3.0606225
0.029430892 -0.03537906 3.7541304
2.2935245 -1.7436683 18.315193
2.9758978 -2.2405949 17.932478
2.7095182 -2.0194297 10.850321
3.3433959 -2.4792709 9.8654289
3.3299229 -2.4621093 7.6566534
2.5253854 -1.8631526 4.6818428
2.9610703 -2.1822214 4.4805374
0.17218286 -0.14372949 3.718214
0.31902537 -0.2476318 3.7234678
2.2199714 -1.6671858 10.726485
2.942971 -2.1950643 10.038241
2.7728667 -2.0599451 7.2061877
3.4127083 -2.5288675 7.0178809
2.7465703 -2.0322783 4.5990076
2.9075336 -2.1482611 3.9972947
3.3923261 -2.4909425 4.2156162
3.2100625 -2.3545322 3.2923572
3.883059 -2.8471386 3.241473
2.991276 -2.2028913 3.3898406
3.9379885 -2.8979931 3.6437213
4.8385377 -3.5594273 3.6153886
0.029307218 -0.03548158 3.7541304
2.2831061 -1.7483565 18.280619
2.9680586 -2.2509689 17.932478
2.6761913 -2.0091581 10.745338
3.3175042 -2.478065 9.8148012
3.7553964 -2.7970419 8.6485853
2.5075736 -1.8635637 4.6611786
2.93542 -2.1791699 4.4536748
0.17145997 -0.1441429 3.7132225
0.31815901 -0.24874389 3.7234678
2.2141383 -1.6749247 10.726485
2.9366705 -2.2063603 10.042934
2.7604308 -2.0656989 7.1926842
3.4310293 -2.5610456 7.073338
2.7660351 -2.061662 4.6428976
2.9163344 -2.1705422 4.0193458
3.3922119 -2.509131 4.22613
3.9100952 -2.8880026 3.2716293
2.9775708 -2.2088699 3.3831894
3.9343429 -2.9165359 3.6496079
0.029206879 -0.035620298 3.7591305
2.273298 -1.7534674 18.250982
2.958565 -2.2600794 17.922688
2.6703522 -2.019388 10.75011
3.2698071 -2.4602642 9.6997375
3.793504 -2.846067 8.7583122
2.5055585 -1.8756782 4.6694441
0.17095576 -0.14474052 3.7132225
0.31687036 -0.24952273 3.7184963
2.2052789 -1.6803576 10.711967
2.9358313 -2.2218051 10.066399
2.7532032 -2.0753219 7.1926842
3.4533367 -2.5965171 7.1373277
2.7853279 -2.0912063 4.6867876
3.4148896 -2.5443954 4.2646799
3.7181072 -2.7673111 3.819618
3.8999906 -2.9016337 3.2716293
2.9728334 -2.2214854 3.3865151
3.9727182 -2.9665277 3.6937551
0.029082363 -0.035722032 3.7591305
2.2610283 -1.7566245 18.20159
2.9506576 -2.2703929 17.922688
2.659725 -2.0259831 10.735794
3.2596421 -2.4704826 9.6951351
3.8217599 -2.8881714 8.8460932
2.5034897 -1.8878016 4.6777105
3.0097406 -2.267108 4.5879874
0.1704495 -0.14533637 3.7132225
0.31599742 -0.25062728 3.7184963
2.200397 -1.6888106 10.716806
2.9225683 -2.2278545 10.047627
2.7442086 -2.0836031 7.1881828
3.440094 -2.6054063 7.1287956
3.4202485 -2.567004 4.2822027
3.6772821 -2.7569242 3.7882333
3.9065676 -2.927768 3.2853365
2.9799762 -2.2430761 3.4031427
4.0107923 -3.0168231 3.7379029
0.028957494 -0.03582333 3.7591305
2.2561064 -1.7654642 18.21147
2.9451292 -2.2825503 17.937374
2.6644793 -2.044342 10.783514
3.2898197 -2.5114837 9.8101978
3.8040328 -2.8956916 8.8285379
2.4677536 -1.874401 4.623982
3.0069153 -2.2814748 4.5956626
0.16994114 -0.14593048 3.7132225
0.31512067 -0.2517288 3.7184963
2.203438 -1.7034007 10.760361
2.9065616 -2.2317367 10.01947
2.7109811 -2.0733316 7.1206651
3.4371994 -2.6221445 7.1415935
3.1445875 -2.3954561 5.3092318
3.5437148 -2.6956179 4.9050603
3.4226463 -2.5875301 4.2962208
3.6831667 -2.781472 3.8039258
3.8996615 -2.9439061 3.2880781
2.9513018 -2.2376735 3.3798642
4.067893 -3.0820656 3.7997091
0.02883227 -0.035924196 3.7591305
2.2505403 -1.7738097 18.216408
2.9427617 -2.2972031 17.97164
2.6726804 -2.0654969 10.84555
3.281033 -2.5229523 9.8101978
2.9918554 -2.2939656 6.976346
2.4679003 -1.8881334 4.6363807
2.9785602 -2.2763863 4.5649624
0.16943072 -0.14652281 3.7132225
0.31424004 -0.25282723 3.7184963
2.2044208 -1.716488 10.794237
2.8932936 -2.2376456 10.000699
2.6916559 -2.0734823 7.0891566
3.4197528 -2.6277699 7.1245294
3.1935804 -2.4504426 5.4049921
3.5315926 -2.7059095 4.9013853
3.4192674 -2.6037827 4.3032298
3.8727195 -2.9448454 3.2743707
2.9405055 -2.2456958 3.3765388
4.0603228 -3.0986986 3.8026521
0.028706694 -0.036024619 3.7591305
2.2443347 -1.7816546 18.216408
2.9387269 -2.3106081 17.996117
2.6666322 -2.0757308 10.850321
3.2258706 -2.4984999 9.672123
2.9838297 -2.3043952 6.976346
2.4144871 -1.8606639 4.5495887
2.9756756 -2.2906802 4.5726376
0.16891822 -0.14711332 3.7132225
0.31335559 -0.25392261 3.7184963
2.2083058 -1.73193 10.842631
2.8772972 -2.2413685 9.9725428
2.648284 -2.0548394 6.9946313
3.4353087 -2.6588471 7.1757212
3.1563973 -2.4394631 5.3571119
3.5221257 -2.7182205 4.9013853
3.4044986 -2.6113615 4.2962208
3.9355466 -3.0154426 4.0801101
3.8657358 -2.9608884 3.277112
2.900095 -2.2309039 3.3399582
4.0526867 -3.1153162 3.8055954
0.02858077 -0.036124602 3.7591305
2.238102 -1.7894781 18.216408
2.9354324 -2.324645 18.025488
2.642925 -2.0721316 10.783514
3.2032666 -2.4989295 9.6307001
2.9814391 -2.3192086 6.9895134
2.4146461 -1.8742572 4.5619874
2.9651284 -2.299089 4.5688
0.16861984 -0.14789338 3.718214
0.31246734 -0.25501487 3.7184963
2.2032332 -1.740407 10.847471
2.8694558 -2.2513983 9.9725428
2.6187973 -2.0466442 6.9361153
3.4630294 -2.6996851 7.2525072
3.0361102 -2.3634689 5.1695805
3.5019093 -2.7221756 4.8866844
3.3925402 -2.6210487 4.2927165
3.9558101 -3.0529428 4.1114941
2.8804839 -2.2318654 3.3266559
4.0258074 -3.1170704 3.7908795
0.028454497 -0.036224149 3.7591305
2.2306316 -1.7963045 18.206528
2.929688 -2.3367825 18.040173
2.5970185 -2.0508146 10.626039
3.1714823 -2.4919899 9.5616627
2.954473 -2.3148301 6.9456224
3.4345028 -2.6851742 6.475543
2.9596112 -2.3113983 4.5726376
0.16810256 -0.14848107 3.718214
0.31157526 -0.25610402 3.7184963
2.1971445 -1.7480873 10.847471
2.853456 -2.254981 9.9443865
2.5859792 -2.0355747 6.8685966
3.4638412 -2.7198107 7.2738371
2.9851596 -2.3405857 5.0977607
3.4737008 -2.719753 4.8609581
3.3749273 -2.6263046 4.2822027
3.9451289 -3.0667324 4.1114941
4.2907062 -3.3341749 3.6472101
4.0117154 -3.1286187 3.7879364
0.028327879 -0.036323253 3.7591305
2.2249513 -1.8045696 18.21147
2.9238942 -2.3489079 18.054857
2.5898438 -2.0598674 10.626039
3.1321259 -2.4787962 9.4696112
3.6908751 -2.912678 8.6836977
3.5776551 -2.8172746 6.760716
2.9464865 -2.3177516 4.5649624
0.16758324 -0.14906695 3.718214
0.31067941 -0.25719008 3.7184963
2.2027996 -1.765179 10.905544
2.8577187 -2.2746003 9.9866219
2.599328 -2.0608191 6.9226117
3.4665995 -2.7415919 7.2994328
3.0928433 -2.4425015 5.2932715
3.474834 -2.7402594 4.875659
3.407841 -2.6710694 4.3347707
4.3712387 -3.4212942 3.7239711
3.9181254 -3.0776851 3.7114143
0.028200915 -0.036421914 3.7591305
2.2246554 -1.8172412 18.26086
2.918052 -2.3610213 18.069544
2.5838029 -2.0698285 10.630811
3.1326201 -2.497021 9.4972277
3.7050583 -2.944917 8.7407551
2.4015012 -1.9046863 4.5743866
2.9559639 -2.3419559 4.591825
0.1670619 -0.14965102 3.718214
0.30977973 -0.25827298 3.7184963
2.1917341 -1.7689099 10.881347
2.8349512 -2.2726879 9.9350004
2.6125314 -2.0861812 6.9766264
3.4610884 -2.7569258 7.3079648
3.2022083 -2.5470724 5.4927726
3.4679019 -2.7544806 4.879334
3.3984962 -2.6829486 4.3347707
3.6821775 -2.903791 3.8635561
4.38554 -3.4572415 3.7459028
3.8249416 -3.0261374 3.634892
0.028073607 -0.036520131 3.7591305
2.2236984 -1.829439 18.305315
2.9121606 -2.3731227 18.08423
2.5719154 -2.0750856 10.611722
3.702235 -2.9638195 8.7583122
2.388242 -1.9077883 4.5619874
2.922718 -2.3322675 4.5534501
0.16653849 -0.15023328 3.718214
0.30887631 -0.25935274 3.7184963
2.1728666 -1.7662419 10.818435
2.8082042 -2.2673922 9.8693027
2.6035371 -2.0939236 6.9721251
2.3834653 -1.9121535 5.0683494
3.1674297 -2.5375106 5.4488826
3.4688549 -2.7750401 4.8940349
3.3193264 -2.6393065 4.2471571
3.6689711 -2.9142056 3.8604181
4.3668952 -3.4673281 3.7404199
3.8143549 -3.0394704 3.634892
0.027945956 -0.036617905 3.7591305
2.2256746 -1.8441314 18.374464
2.9070075 -2.3858578 18.103811
2.564656 -2.0840507 10.611722
3.2153745 -2.5999053 9.8009939
3.6993239 -2.9827375 8.7758684
2.3399115 -1.8825964 4.4834614
2.9295487 -2.3545034 4.5764747
0.16601306 -0.15081368 3.718214
0.30796912 -0.26042935 3.7184963
2.1666882 -1.7738159 10.818435
2.7761736 -2.2575822 9.784832
2.5979035 -2.1043692 6.9766264
2.3179483 -1.872926 4.9446373
3.1444829 -2.5371985 5.4249425
3.4591472 -2.787132 4.8940349
3.0957558 -2.4792221 3.9773073
3.6648552 -2.9318581 3.8666947
3.8068745 -3.0552967 3.6378353
0.027817966 -0.036715232 3.7591305
2.2341368 -1.8643363 18.497946
2.9010155 -2.3979368 18.118496
2.548125 -2.0854268 10.573546
3.2214274 -2.62345 9.8470182
2.0175126 -1.6383097 4.8300862
2.3311393 -1.8889811 4.4793286
0.16548562 -0.15139227 3.718214
0.30705819 -0.26150277 3.7184963
2.161453 -1.782168 10.823274
2.7616012 -2.2617917 9.7613688
2.6023493 -2.1230578 7.0081344
2.3113966 -1.8810058 4.9446373
3.4125435 -2.7692823 4.8425827
3.0149119 -2.4317992 3.886189
3.6849077 -2.9690542 3.8980794
3.7238872 -3.0101242 3.5701425
0.027667498 -0.036774512 3.7541304
2.2418902 -1.8841227 18.616488
2.8949749 -2.4100027 18.133183
2.5304635 -2.085763 10.530599
2.017343 -1.6498908 4.8432536
2.3354318 -1.9060034 4.4999933
3.2956123 -2.686805 5.1674504
0.16495615 -0.151969 3.718214
0.30654773 -0.26292047 3.7234678
2.1590867 -1.7929143 10.842631
2.7576828 -2.2747121 9.7754469
2.6033323 -2.1390393 7.0306406
3.9527402 -3.2397947 8.4299049
2.8935153 -2.3682351 5.0259399
3.3844814 -2.7661593 4.8168564
3.097748 -2.5165141 4.0018392
3.7591462 -3.0505736 3.9859562
3.9276838 -3.1862149 3.4004781
3.7427149 -3.0491688 4.3808393
3.7541063 -3.0562799 3.6084034
0.027538963 -0.036870867 3.7541304
2.2453811 -1.9004714 18.700455
2.8834238 -2.4174767 18.1136
2.5059402 -2.080281 10.459019
2.0023289 -1.6493089 4.8213081
2.3244164 -1.9105698 4.4917274
3.3580511 -2.7572796 5.278738
0.16421391 -0.15234658 3.7132225
0.30562809 -0.26398891 3.7234678
3.8381696 -3.210115 19.301945
2.7603445 -2.2931464 9.8129883
2.6612577 -2.2022426 7.2061877
3.8006194 -3.137351 8.1312904
2.8922062 -2.3840709 5.03791
3.3433959 -2.7521017 4.7727542
3.4367182 -2.8118598 4.4434118
3.7635436 -3.0759931 4.0016484
3.9327283 -3.2131338 3.4141855
3.7320483 -3.0622146 4.3808393
3.7559171 -3.0796165 3.6201761
0.027410094 -0.036966771 3.7541304
2.2446465 -1.913339 18.749847
2.8718562 -2.4248993 18.094021
2.4849217 -2.0775261 10.401755
1.9947163 -1.6547592 4.8169193
2.3177333 -1.9186721 4.4917274
3.3533461 -2.7730699 5.2864132
0.16368113 -0.15291886 3.7132225
