# .PCD v0.7 - Point Cloud Data file format
VERSION 0.7
FIELDS x y z
SIZE 4 4 4
TYPE F F F
COUNT 1 1 1
WIDTH 1442
HEIGHT 1
VIEWPOINT 0 0 0 1 0 0 0
POINTS 1442
DATA ascii
-0.92153293 0.19917928 1.3231975
-0.90258652 0.19443659 1.0792141
-0.89350772 0.18971056 0.97741568
-0.87879264 0.18611515 0.80669963
-0.86939716 0.18397164 0.66723639
-0.86390495 0.18250211 0.54875475
-0.85810369 0.18112521 0.44265413
-0.84521747 0.17825611 0.34384581
-0.8508091 0.17913058 0.2565459
-0.84771955 0.17848271 0.17072052
-0.88705647 0.18964054 0.88906449
-0.87615395 0.18699731 0.735879
-0.85760647 0.18288676 0.60090578
-0.86229503 0.18342267 0.49499801
-0.8458274 0.17977032 0.39010164
-0.84646308 0.1797563 0.29942557
-0.83789557 0.1779394 0.21168561
-0.84033394 0.17830923 0.12832873
-0.041091345 0.020136593 3.7241316
-0.56220472 0.13104543 3.6702929
-0.73701245 0.16830079 3.6579952
-1.1200846 0.25021833 3.7162056
-1.0502549 0.23195614 2.5934405
-0.97819757 0.21462582 1.9025706
-0.93539387 0.20422243 1.4788078
-0.91635817 0.19957291 1.1994712
-0.21419857 0.060415938 3.6882641
-0.38560262 0.094128348 3.6588383
-0.92385888 0.20988317 3.6851227
-1.0921488 0.24439533 3.0976403
-1.0153966 0.22519644 2.2143419
-0.95416784 0.21040942 1.6683997
-0.92083204 0.20239481 1.3231975
-0.90190226 0.19758603 1.0792141
-0.89632583 0.19358136 0.9809202
-0.87813759 0.18918157 0.80669963
-0.86874974 0.1870053 0.66723639
-0.86326265 0.18551657 0.54875475
-0.85746622 0.18411945 0.44265413
-0.84459007 0.18120539 0.34384581
-0.85017866 0.18209936 0.2565459
-0.84709138 0.18144071 0.17072052
-0.88638908 0.19273579 0.88906449
-0.87549591 0.19005452 0.735879
-0.86117566 0.18679316 0.60343897
-0.86164951 0.18643153 0.49499801
-0.8451947 0.18272172 0.39010164
-0.84583044 0.18270992 0.29942557
-0.83726931 0.18086313 0.21168561
-0.84458989 0.18229553 0.12853025
-0.040984135 0.020256266 3.7191319
-0.56174386 0.13300709 3.6702929
-0.73741227 0.17110285 3.6628907
-1.1206601 0.25445735 3.7209778
-1.0513451 0.23604898 2.5980432
-0.97744244 0.21803905 1.9025706
-0.93742251 0.20809634 1.4829408
-0.91565597 0.20277037 1.1994712
-0.21370918 0.061082672 3.6832726
-0.3852717 0.095473781 3.6588383
-0.92434531 0.21338974 3.6899624
-1.091289 0.24820614 3.0976403
-1.0146043 0.22873946 2.2143419
-0.95342761 0.21373881 1.6683997
-0.92306066 0.2062652 1.3271875
-0.90120709 0.20073304 1.0792141
-0.89564472 0.19670893 0.9809202
-0.87747186 0.19224569 0.80669963
-0.87217635 0.19093099 0.66997784
-0.86693746 0.18947475 0.55107355
-0.85681832 0.18711144 0.44265413
-0.84395242 0.18415245 0.34384581
-0.84473813 0.1840203 0.2556133
-0.84645289 0.18439649 0.17072052
-0.8857109 0.19582869 0.88906449
-0.87482715 0.19310941 0.735879
-0.86051834 0.18979809 0.60343897
-0.85656095 0.18846275 0.49289995
-0.84455174 0.18567088 0.39010164
-0.84518754 0.1856613 0.29942557
-0.84146965 0.18484718 0.21237628
-0.84394842 0.18524258 0.12853025
-0.04091318 0.020399202 3.7191319
-0.56203151 0.13514918 3.6752322
-0.73780149 0.17390975 3.6677856
-1.1197649 0.25836763 3.7209778
-1.0505148 0.23971742 2.5980432
-0.97901106 0.22197944 1.9069598
-0.93669039 0.21136729 1.4829408
-0.91494262 0.20596538 1.1994712
-0.21349466 0.061828289 3.6832726
-0.3854529 0.096948624 3.6638098
-0.92359483 0.21661501 3.6899624
-1.0920973 0.25240272 3.1023331
-1.0137997 0.23227969 2.2143419
-0.9526757 0.21706559 1.6683997
-0.92233503 0.20948602 1.3271875
-0.90050095 0.20387763 1.0792141
-0.8949526 0.19983412 0.9809202
-0.87679547 0.19530746 0.80669963
-0.87150455 0.19397429 0.66997784
-0.8705951 0.19346082 0.55339235
-0.86068559 0.19110613 0.44452715
-0.8433044 0.18709728 0.34384581
-0.84409064 0.18696786 0.2556133
-0.8458041 0.18735005 0.17072052
-0.88866484 0.19973816 0.89239001
-0.87414771 0.19616196 0.735879
-0.85985059 0.1928007 0.60343897
-0.8558979 0.19145156 0.49289995
-0.84850687 0.18964788 0.39174515
-0.84927809 0.18966991 0.30059788
-0.8408193 0.18778333 0.21237628
-0.84329665 0.18818739 0.12853025
-0.040841725 0.020541891 3.7191319
-0.56155634 0.13711022 3.6752322
-0.73718995 0.17648411 3.6677856
-1.1203095 0.26261562 3.7257495
-1.0515747 0.24382441 2.6026456
-0.9782303 0.22539547 1.9069598
-0.93594688 0.21463567 1.4829408
-0.91734254 0.20987289 1.2033087
-0.21300086 0.062490616 3.6782808
-0.38511214 0.098293513 3.6638098
-0.92405576 0.22012915 3.6948018
-1.0912097 0.25621331 3.1023331
-1.0129827 0.2358171 2.2143419
-0.95191216 0.22038972 1.6683997
-0.92159814 0.2127043 1.3271875
-0.89978373 0.20701972 1.0792141
-0.89424956 0.20295687 0.9809202
-0.87610841 0.19836687 0.80669963
-0.87082213 0.19701523 0.66997784
-0.86991453 0.19649859 0.55339235
-0.86001331 0.19410932 0.44452715
-0.84264618 0.19003983 0.34384581
-0.8434329 0.18991315 0.2556133
-0.84514499 0.19030131 0.17072052
-0.88796216 0.20283896 0.89239001
-0.87345767 0.1992121 0.735879
-0.85917234 0.19580097 0.60343897
-0.85522443 0.19443803 0.49289995
-0.84783971 0.19260857 0.39174515
-0.84861082 0.19263329 0.30059788
-0.84498781 0.19181345 0.21306697
-0.83776248 0.19002475 0.12832873
-0.040769771 0.020684332 3.7191319
-0.56107432 0.13906959 3.6752322
-0.73755878 0.1792971 3.6726811
-1.119386 0.26652461 3.7257495
-1.0526189 0.24794173 2.6072483
-0.9774375 0.22880876 1.9069598
-0.93519193 0.21790142 1.4829408
-0.91660434 0.21307375 1.2033087
-0.21278144 0.063233748 3.6782808
-0.38528258 0.09977141 3.6687813
-0.92450345 0.22364914 3.6996412
-1.0919871 0.26042128 3.1070261
-1.0121534 0.23935163 2.2143419
-0.95113707 0.22371118 1.6683997
-0.9208501 0.21591999 1.3271875
-0.8990556 0.21015929 1.0792141
-0.89353567 0.20607714 0.9809202
-0.8792038 0.20229676 0.80983812
-0.87012911 0.20005375 0.66997784
-0.87354076 0.20052518 0.55571121
-0.85933048 0.19711013 0.44452715
-0.83730191 0.1919083 0.34243578
-0.83797634 0.1917603 0.25468066
-0.84447557 0.19325025 0.17072052
-0.88724875 0.2059373 0.89239001
-0.87669462 0.20317252 0.73882216
-0.85428405 0.19782621 0.60090578
-0.85454047 0.19742213 0.49289995
-0.84716219 0.19556691 0.39174515
-0.84793323 0.19559433 0.30059788
-0.84431314 0.19476184 0.21306697
-0.83709407 0.19294794 0.12832873
-0.040733658 0.02085067 3.7241316
-0.5605855 0.14102726 3.6752322
-0.7369284 0.18187058 3.6726811
-1.1198996 0.2707814 3.7305217
-1.051747 0.25161454 2.6072483
-0.97663289 0.23221926 1.9069598
-0.93716389 0.22181284 1.4870737
-0.91585499 0.21627198 1.2033087
-0.21255942 0.063976102 3.6782808
-0.38493195 0.10111568 3.6687813
-0.92493778 0.22717495 3.7044806
-1.0927486 0.26463783 3.1117187
-1.0113118 0.24288324 2.2143419
-0.95035034 0.2270299 1.6683997
-0.92009073 0.21913303 1.3271875
-0.90161508 0.21407966 1.0828893
-0.89281088 0.20919491 0.9809202
-0.87849224 0.20536454 0.80983812
-0.86942548 0.20308986 0.66997784
-0.87714952 0.20457946 0.55803001
-0.85863715 0.20010856 0.44452715
-0.83662695 0.19482987 0.34243578
-0.84208649 0.19579676 0.2556133
-0.84379584 0.19619685 0.17072052
-0.89015853 0.20989016 0.89571548
-0.87598002 0.20623152 0.73882216
-0.85358828 0.20080701 0.60090578
-0.85384613 0.20040384 0.49289995
-0.84647441 0.19852287 0.39174515
-0.84724534 0.19855297 0.30059788
-0.84362811 0.19770786 0.21306697
-0.83641541 0.19586876 0.12832873
-0.040660627 0.02099273 3.7241316
-0.56008977 0.1429832 3.6752322
-0.73628902 0.18444183 3.6726811
-1.1189476 0.2746889 3.7305217
-1.0527606 0.25574565 2.6118507
-0.97581631 0.23562694 1.9069598
-0.9363839 0.22508278 1.4870737
-0.91509449 0.2194676 1.2033087
-0.21233481 0.064717688 3.6782808
-0.38406169 0.10232093 3.6638098
-0.9241392 0.2304022 3.7044806
-1.0918182 0.26845062 3.1117187
-1.0104578 0.24641189 2.2143419
-0.94955212 0.23034586 1.6683997
-0.91932023 0.22234342 1.3271875
-0.90086228 0.2172256 1.0828893
-0.89207524 0.21231014 0.9809202
-0.87777007 0.20842978 0.80983812
-0.86871129 0.2061235 0.66997784
-0.87643003 0.20764004 0.55803001
-0.8579334 0.20310454 0.44452715
-0.83594179 0.19774903 0.34243578
-0.84139788 0.198735 0.2556133
-0.84310585 0.19914106 0.17072052
-0.88942045 0.21299611 0.89571548
-0.87525481 0.209288 0.73882216
-0.85288215 0.20378536 0.60090578
-0.85755616 0.20443566 0.49499801
-0.84577626 0.20147641 0.39174515
-0.85127562 0.20263483 0.30177018
-0.84293288 0.20065148 0.21306697
-0.83086628 0.19763109 0.12812719
-0.040587101 0.021134533 3.7241316
-0.56033933 0.1451326 3.6801713
-0.73564076 0.18701084 3.6726811
-1.1179819 0.27859309 3.7305217
-1.0518614 0.2594189 2.6118507
-0.97498792 0.23903173 1.9069598
-0.93559253 0.22835001 1.4870737
-0.91432279 0.22266053 1.2033087
-0.21210761 0.065458484 3.6782808
-0.38370219 0.10366094 3.6638098
-0.92454779 0.23393519 3.7093201
-1.0925487 0.2726782 3.1164114
-1.0095915 0.24993756 2.2143419
-0.94874227 0.23365901 1.6683997
-0.91853851 0.22555108 1.3271875
-0.90009856 0.22036886 1.0828893
-0.89132869 0.21542276 0.9809202
-0.87703717 0.21149251 0.80983812
-0.86798644 0.20915461 0.66997784
-0.87139308 0.20966171 0.55571121
-0.85721922 0.20609805 0.44452715
-0.83991069 0.20178647 0.34384581
-0.84547579 0.20281671 0.2565459
-0.84240556 0.20208283 0.17072052
-0.88867158 0.21609947 0.89571548
-0.87451893 0.21234193 0.73882216
-0.85216558 0.20676123 0.60090578
-0.85683733 0.20742784 0.49499801
-0.8450678 0.20442748 0.39174515
-0.85056305 0.20560509 0.30177018
-0.83741391 0.20242906 0.21237628
-0.83017135 0.20053016 0.12812719
-0.040476996 0.02125155 3.7191319
-0.55982935 0.14708766 3.6801713
-0.73596931 0.18983214 3.6775763
-1.1184498 0.28286007 3.7352936
-1.0528446 0.26356363 2.6164534
-0.97414756 0.24243361 1.9069598
-0.93478978 0.23161446 1.4870737
-0.91354007 0.22585076 1.2033087
-0.21187782 0.066198476 3.6782808
-0.383338 0.10499968 3.6638098
-0.92372555 0.23716104 3.7093201
-1.0915903 0.27649024 3.1164114
-1.0108241 0.25399086 2.218843
-0.95045096 0.23760203 1.6726656
-0.92066932 0.22948499 1.3311775
-0.89932388 0.22350946 1.0828893
-0.8905713 0.21853277 0.9809202
-0.8762936 0.21455266 0.80983812
-0.8672511 0.21218316 0.66997784
-0.87065589 0.21270216 0.55571121
-0.85649461 0.20908906 0.44452715
-0.83920121 0.20471708 0.34384581
-0.84476268 0.20576674 0.2565459
-0.84169501 0.20502214 0.17072052
-0.8879118 0.21920021 0.89571548
-0.87377238 0.21539328 0.73882216
-0.85143864 0.20973459 0.60090578
-0.85610807 0.21041751 0.49499801
-0.84434909 0.20737608 0.39174515
-0.84984022 0.20857286 0.30177018
-0.83670223 0.20535094 0.21237628
-0.82946634 0.20342678 0.12812719
-0.040402569 0.021392711 3.7191319
-0.56006318 0.14924139 3.6851106
-0.73530215 0.19239999 3.6775763
-1.1174556 0.28676248 3.7352936
-1.0519183 0.26723716 2.6164534
-0.97561741 0.24641924 1.9113487
-0.93397558 0.23487607 1.4870737
-0.91274613 0.22903824 1.2033087
-0.21164545 0.066937663 3.6782808
-0.38348266 0.10648032 3.6687813
-0.92410839 0.24070105 3.7141595
-1.0906185 0.28029889 3.1164114
-1.0099313 0.25751776 2.218843
-0.94961578 0.24091826 1.6726656
-0.91986263 0.23269732 1.3311775
-0.89853817 0.22664732 1.0828893
-0.88980305 0.22164011 0.9809202
-0.8755393 0.21761018 0.80983812
-0.86650515 0.21520914 0.66997784
-0.86560857 0.21467361 0.55339235
-0.85575956 0.21207751 0.44452715
-0.83848149 0.20764519 0.34384581
-0.84880787 0.20989348 0.25747854
-0.84097427 0.20795895 0.17072052
-0.88714123 0.22229825 0.89571548
-0.87301522 0.21844199 0.73882216
-0.85488337 0.21375118 0.60343897
-0.85096484 0.21230586 0.49289995
-0.84820199 0.21146454 0.39338866
-0.84910697 0.21153808 0.30177018
-0.8359803 0.20827033 0.21237628
-0.83359915 0.20752785 0.12832873
-0.040327646 0.021533612 3.7191319
-0.55953884 0.15119548 3.6851106
-0.73561019 0.19522698 3.6824715
-1.1164478 0.29066136 3.7352936
-1.050979 0.2709074 2.6164534
-0.97475129 0.24982327 1.9113487
-0.93587655 0.23883082 1.4912066
-0.91194105 0.23222291 1.2033087
-0.21141051 0.067676038 3.6782808
-0.38310862 0.10781828 3.6687813
-0.9244777 0.24424662 3.7189989
-1.0896335 0.28410417 3.1164114
-1.0090263 0.26104149 2.218843
-0.94876897 0.24423158 1.6726656
-0.91904479 0.23590682 1.3311775
-0.89774156 0.22978242 1.0828893
-0.88902396 0.22474475 0.9809202
-0.8747744 0.22066507 0.80983812
-0.86980325 0.2192547 0.67271936
-0.86485392 0.21769384 0.55339235
-0.85501403 0.21506336 0.44452715
-0.83775157 0.21057077 0.34384581
-0.84807009 0.2128551 0.25747854
-0.84024322 0.21089324 0.17072052
-0.88635987 0.22539361 0.89571548
-0.8722474 0.22148806 0.73882216
-0.854132 0.21673396 0.60343897
-0.85021859 0.21527499 0.49289995
-0.84745866 0.21442403 0.39338866
-0.84365106 0.2133092 0.30059788
-0.83524823 0.21118717 0.21237628
-0.83286965 0.21043639 0.12832873
-0.040216409 0.021649342 3.7141321
-0.55975688 0.15335336 3.6900496
-0.73590738 0.19805847 3.6873667
-1.1168697 0.29493803 3.7400656
-1.050027 0.27457437 2.6164534
-0.97619122 0.25382718 1.9157379
-0.9350372 0.24209617 1.4912066
-0.91422814 0.23620676 1.2071462
-0.21117298 0.068413585 3.6782808
-0.38324237 0.10930166 3.6737528
-0.92361945 0.24747215 3.7189989
-1.0886351 0.28790596 3.1164114
-1.0081089 0.26456207 2.218843
-0.95043409 0.24820109 1.6769315
-0.91821575 0.23911346 1.3311775
-0.90021527 0.23376699 1.0865644
-0.89168841 0.22873294 0.98442477
-0.87776947 0.22468258 0.81297654
-0.86903256 0.22228955 0.67271936
-0.85979682 0.219615 0.55107355
-0.85425812 0.21804662 0.44452715
-0.84165967 0.21467946 0.34525582
-0.84732187 0.21581411 0.25747854
-0.83950192 0.21382494 0.17072052
-0.88556772 0.22848621 0.89571548
-0.87146896 0.22453143 0.73882216
-0.85337025 0.21971413 0.60343897
-0.84946191 0.21824148 0.49289995
-0.84670502 0.21738091 0.39338866
-0.84290135 0.21625279 0.30059788
-0.8393026 0.21533212 0.21306697
-0.83696944 0.21458311 0.12853025
-0.040140595 0.021789592 3.7141321
-0.55921817 0.15530635 3.6900496
-0.73521155 0.20062606 3.6873667
-1.1158334 0.29883486 3.7400656
-1.0490621 0.27823794 2.6164534
-0.97529924 0.25723317 1.9157379
-0.9341864 0.2453586 1.4912066
-0.91339809 0.23939656 1.2071462
-0.2109329 0.069150299 3.6782808
-0.38285851 0.11063875 3.6737528
-0.92396301 0.25102448 3.7238383
-1.0892901 0.29215148 3.1211042
-1.0071793 0.2680794 2.218843
-0.94956189 0.25151721 1.6769315
-0.92028874 0.24308689 1.3351675
-0.89939374 0.23690791 1.0865644
-0.89088458 0.23184411 0.98442477
-0.87697983 0.22774522 0.81297654
-0.86825132 0.22532168 0.67271936
-0.85902494 0.22261493 0.55107355
-0.85349178 0.2210272 0.44452715
-0.84090513 0.2176161 0.34525582
-0.84656334 0.2187705 0.25747854
-0.83875042 0.21675405 0.17072052
-0.88476473 0.23157601 0.89571548
-0.87067986 0.22757207 0.73882216
-0.85676897 0.22378115 0.60597211
-0.84430325 0.22006056 0.49080193
-0.84594107 0.22033514 0.39338866
-0.84214133 0.21919374 0.30059788
-0.83854586 0.21826051 0.21306697
-0.83621526 0.21750338 0.12853025
-0.040099941 0.021954734 3.7191319
-0.55942053 0.15746838 3.6949892
-0.73548806 0.20346296 3.6922619
-1.1162238 0.30311936 3.7448375
-1.0480845 0.2818982 2.6164534
-0.97670889 0.26125506 1.9201269
-0.9360435 0.24934258 1.4953396
-0.91565448 0.2434071 1.2109838
-0.21069023 0.06988617 3.6782808
-0.38246998 0.11197452 3.6737528
-0.9230811 0.25424817 3.7238383
-1.0882638 0.29595202 3.1211042
-1.0083389 0.27216092 2.2233443
-0.95119691 0.25550705 1.6811975
-0.91943467 0.24629782 1.3351675
-0.90183657 0.24092107 1.0902396
-0.89006984 0.23495249 0.98442477
-0.87617952 0.23080507 0.81297654
-0.86745954 0.22835106 0.67271936
-0.85824263 0.22561212 0.55107355
-0.85271502 0.2240051 0.44452715
-0.8401404 0.22055009 0.34525582
-0.84579456 0.22172423 0.25747854
-0.84280586 0.22094338 0.1711676
-0.88755971 0.2356212 0.899041
-0.8698802 0.23060991 0.73882216
-0.8559826 0.22677046 0.60597211
-0.84352994 0.2230064 0.49080193
-0.8451668 0.22328667 0.39338866
-0.84607071 0.22337285 0.30177018
-0.83777887 0.22118627 0.21306697
-0.83545095 0.22042099 0.12853025
-0.040023062 0.022094576 3.7191319
-0.55886745 0.15942015 3.6949892
-0.73477334 0.20602907 3.6922619
-1.116598 0.30741027 3.7496097
-1.0470941 0.28555498 2.6164534
-0.97579104 0.26466283 1.9201269
-0.93516743 0.25260845 1.4953396
-0.91789395 0.24743629 1.2148212
-0.210445 0.070621192 3.6782808
-0.38258764 0.113461 3.6787243
-0.92339861 0.25780702 3.7286777
-1.0888876 0.30020782 3.125797
-1.0073829 0.27567902 2.2233443
-0.95029926 0.25882578 1.6811975
-0.91856933 0.24950576 1.3351675
-0.90099013 0.24406758 1.0902396
-0.89268917 0.2389804 0.98792928
-0.87536848 0.23386207 0.81297654
-0.87069702 0.23245637 0.67546082
-0.85744989 0.22860655 0.55107355
-0.85192794 0.22698027 0.44452715
-0.83936542 0.22348139 0.34525582
-0.84501547 0.22467527 0.25747854
-0.84202951 0.22388399 0.1711676
-0.8867318 0.23871793 0.899041
-0.86906993 0.23364495 0.73882216
-0.85934901 0.23087566 0.60850531
-0.84274632 0.22594948 0.49080193
-0.84438223 0.22623551 0.39338866
-0.84528577 0.22632483 0.30177018
-0.83700168 0.22410932 0.21306697
-0.83950263 0.22462726 0.12873179
-0.039981164 0.02225955 3.7241316
-0.55905384 0.16158611 3.6999283
-0.73404968 0.20859264 3.6922619
-1.116956 0.31170747 3.7543814
-1.046091 0.28920826 2.6164534
-0.9748612 0.26806739 1.9201269
-0.9369939 0.25661474 1.4994725
-0.91702467 0.25063884 1.2148212
-0.2101972 0.07135535 3.6782808
-0.38218927 0.1147958 3.6787243
-0.92249304 0.26102871 3.7286777
-1.0894949 0.30447155 3.1304898
-1.0085121 0.27977592 2.2278454
-0.94938999 0.26214135 1.6811975
-0.91769272 0.25271061 1.3351675
-0.90013266 0.24721116 1.0902396
-0.89184958 0.24209501 0.98792928
-0.87454689 0.23691626 0.81297654
-0.86988032 0.23549427 0.67546082
-0.86092293 0.23275447 0.55339235
-0.85113043 0.22995266 0.44452715
-0.83858019 0.22640994 0.34525582
-0.8394832 0.2263447 0.2565459
-0.84124291 0.22682184 0.1711676
-0.88589317 0.24181172 0.899041
-0.86824906 0.23667715 0.73882216
-0.85853785 0.23387392 0.60850531
-0.84633201 0.23008056 0.49289995
-0.8435874 0.22918157 0.39338866
-0.84449065 0.22927403 0.30177018
-0.8362143 0.22702962 0.21306697
-0.83871341 0.22755632 0.12873179
-0.03990322 0.022398977 3.7241316
-0.5584864 0.16353659 3.6999283
-0.73429543 0.21143569 3.6971571
-1.1172974 0.31601092 3.7591536
-1.0450751 0.29285803 2.6164534
-0.97391957 0.27146867 1.9201269
-0.9360925 0.25988391 1.4994725
-0.91923302 0.25469434 1.2186587
-0.20994684 0.072088644 3.6782808
-0.38178623 0.11612919 3.6787243
-0.92278451 0.2645939 3.7335172
-1.0884255 0.30827275 3.1304898
-1.0075294 0.28329459 2.2278454
-0.95098054 0.26615685 1.6854634
-0.91680503 0.25591242 1.3351675
-0.89926428 0.2503517 1.0902396
-0.89099908 0.24520665 0.98792928
-0.87371457 0.23996757 0.81297654
-0.86905295 0.23852926 0.67546082
-0.86010522 0.23575823 0.55339235
-0.85032254 0.23292227 0.44452715
-0.84241158 0.23060235 0.34666586
-0.84342635 0.23056906 0.25747854
-0.840446 0.22975695 0.1711676
-0.88504368 0.2449026 0.899041
-0.86741757 0.23970646 0.73882216
-0.85771626 0.23686935 0.60850531
-0.84989905 0.2342394 0.49499801
-0.84278226 0.23212484 0.39338866
-0.84368521 0.23222047 0.30177018
-0.83541673 0.22994718 0.21306697
-0.83791399 0.23048259 0.12873179
-0.039824791 0.022538127 3.7241316
-0.55791217 0.16548505 3.6999283
-0.73355293 0.21399757 3.6971571
-1.1190572 0.32073194 3.7686975
-1.0459256 0.29703814 2.6210558
-0.97296602 0.27486661 1.9201269
-0.93517959 0.26314989 1.4994725
-0.91833836 0.25790152 1.2186587
-0.20969392 0.072821051 3.6782808
-0.38137856 0.11746116 3.6787243
-0.92306226 0.26816428 3.7383566
-1.0890015 0.31254643 3.1351826
-1.0086279 0.28740653 2.2323468
-0.9500457 0.26947477 1.6854634
-0.91590613 0.25911114 1.3351675
-0.89838487 0.2534892 1.0902396
-0.89357275 0.24927378 0.9914338
-0.87662125 0.24406004 0.81611502
-0.8641867 0.24044044 0.67271936
-0.86354512 0.23994516 0.55571121
-0.84950435 0.23588903 0.44452715
-0.84160149 0.23354155 0.34666586
-0.84261638 0.23351176 0.25747854
-0.83483982 0.23135926 0.17072052
-0.88418347 0.24799049 0.899041
-0.87046766 0.24382322 0.74176532
-0.85688418 0.23986192 0.60850531
-0.85344738 0.23842594 0.49709606
-0.84651506 0.23633516 0.39503217
-0.84286946 0.23516408 0.30177018
-0.83460897 0.23286194 0.21306697
-0.83710438 0.23340605 0.12873179
-0.039745875 0.022677004 3.7241316
-0.55807513 0.16765547 3.7048676
-0.73377782 0.21684569 3.7020524
-1.1193644 0.32505274 3.7734697
-1.0448824 0.30068728 2.6210558
-0.97200066 0.27826121 1.9201269
-0.93425536 0.26641268 1.4994725
-0.91743249 0.26110554 1.2186587
-0.20943846 0.073552579 3.6782808
-0.38147491 0.11895093 3.6836958
-0.92332637 0.27173987 3.743196
-1.0879039 0.31634587 3.1351826
-1.0076184 0.29092556 2.2323468
-0.9490993 0.27278939 1.6854634
-0.91499609 0.26230663 1.3351675
-0.89749455 0.2566236 1.0902396
-0.89269722 0.2523914 0.9914338
-0.87576395 0.24711852 0.81611502
-0.86334217 0.24345556 0.67271936
-0.86270225 0.24295804 0.55571121
-0.85313827 0.24010895 0.4464002
-0.84078115 0.23647787 0.34666586
-0.84179616 0.23645163 0.25747854
-0.83402711 0.23427199 0.17072052
-0.88331234 0.25107536 0.899041
-0.86961132 0.24686024 0.74176532
-0.85604167 0.24285154 0.60850531
-0.85697675 0.24264009 0.49919412
-0.84568495 0.23928863 0.39503217
-0.84204346 0.23810478 0.30177018
-0.83379108 0.23577382 0.21306697
-0.83147687 0.23496805 0.12853025
-0.039666474 0.022815606 3.7241316
-0.55748653 0.16960248 3.7048676
-0.73399174 0.21969798 3.7069476
-1.1210868 0.32980096 3.7830136
-1.0457021 0.30487978 2.6256583
-0.97332358 0.28231981 1.9245161
-0.93331969 0.26967219 1.4994725
-0.91959518 0.26519468 1.2224963
-0.20890884 0.074185371 3.6732893
-0.38105738 0.12028179 3.6836958
-0.92237216 0.27496123 3.743196
-1.0867931 0.3201414 3.1351826
-1.0086862 0.29505238 2.2368479
-0.94814128 0.27610072 1.6854634
-0.91696852 0.26633966 1.3391576
-0.89659333 0.25975487 1.0902396
-0.89181072 0.25550598 0.9914338
-0.87489599 0.25017399 0.81611502
-0.86248708 0.24646768 0.67271936
-0.86184895 0.24596795 0.55571121
-0.85229498 0.2430855 0.4464002
-0.83995062 0.23941129 0.34666586
-0.84096563 0.2393886 0.25747854
-0.83320427 0.23718184 0.17072052
-0.88601846 0.2551907 0.90236646
-0.86874431 0.24989423 0.74176532
-0.85518879 0.2458382 0.60850531
-0.85612452 0.24563001 0.49919412
-0.84938377 0.24354075 0.39667568
-0.84120715 0.24104263 0.30177018
-0.83772349 0.24004704 0.21375765
-0.83065164 0.23786901 0.12853025
-0.039551571 0.022927908 3.7191319
-0.55689108 0.17154744 3.7048676
-0.7332204 0.22225875 3.7069476
-1.1213592 0.33413869 3.7877855
-1.046505 0.30908167 2.6302607
-0.97233218 0.28571564 1.9245161
-0.93237263 0.27292845 1.4994725
-0.91866386 0.26840305 1.2224963
-0.20864861 0.07491415 3.6732893
-0.38063517 0.1216112 3.6836958
-0.92261004 0.27854273 3.7480354
-1.0840153 0.32343948 3.1304898
-1.00765 0.29857156 2.2368479
-0.94967318 0.28014678 1.6897295
-0.91603321 0.26953885 1.3391576
-0.89568108 0.26288298 1.0902396
-0.89091343 0.25861743 0.9914338
-0.87401742 0.25322643 0.81611502
-0.8616215 0.24947684 0.67271936
-0.8609851 0.24897487 0.55571121
-0.85144126 0.24605907 0.4464002
-0.83910972 0.2423418 0.34666586
-0.84012491 0.24232264 0.25747854
-0.83715618 0.24146901 0.1711676
-0.88512224 0.25828192 0.90236646
-0.86786669 0.25292519 0.74176532
-0.85432541 0.24882187 0.60850531
-0.85526192 0.24861693 0.49919412
-0.8485285 0.24650419 0.39667568
-0.84036064 0.24397752 0.30177018
-0.83688051 0.24296978 0.21375765
-0.82981622 0.24076706 0.12853025
-0.039471295 0.023065832 3.7191319
-0.5562889 0.17349032 3.7048676
-0.7334134 0.22511588 3.7118428
-1.1216151 0.33848238 3.7925575
-1.0454197 0.31273279 2.6302607
-0.97132885 0.28910795 1.9245161
-0.93411219 0.27698156 1.5036055
-0.92079484 0.27251801 1.2263339
-0.20811492 0.075542279 3.6682975
-0.38071543 0.12310368 3.6886673
-0.9228341 0.28212926 3.7528749
-1.0828797 0.32722148 3.1304898
-1.0066018 0.3020871 2.2368479
-0.94868946 0.28346005 1.6897295
-0.91797441 0.2735956 1.3431475
-0.89475799 0.2660079 1.0902396
-0.89000529 0.26172572 0.9914338
-0.87312812 0.25627577 0.81611502
-0.86074543 0.25248295 0.67271936
-0.86011076 0.25197875 0.55571121
-0.85502625 0.25033239 0.44827321
-0.84286278 0.24661654 0.3480759
-0.83927393 0.24525376 0.25747854
-0.83630818 0.24438976 0.1711676
-0.8842153 0.26137 0.90236646
-0.87085509 0.25709769 0.74470848
-0.85345167 0.2518025 0.60850531
-0.85438883 0.25160086 0.49919412
-0.84766287 0.2494646 0.39667568
-0.84416693 0.24828097 0.30294251
-0.83602726 0.24588956 0.21375765
-0.8337639 0.2450711 0.12873179
-0.039355695 0.023177205 3.7141321
-0.55642074 0.17566538 3.7098067
-0.73262316 0.22767459 3.7118428
-1.1204268 0.34239548 3.7925575
-1.0461915 0.31694672 2.6348634
-0.97260678 0.29318821 1.928905
-0.93313962 0.28024054 1.5036055
-0.91983795 0.27573049 1.2263339
-0.20784996 0.076268271 3.6682975
-0.38028339 0.12443188 3.6886673
-0.92304438 0.28572071 3.7577143
-1.0833809 0.33150452 3.1351826
-1.0055411 0.30559897 2.2368479
-0.94769424 0.28676987 1.6897295
-0.91989845 0.27766919 1.3471376
-0.89707023 0.27010715 1.0939147
-0.88908619 0.2648308 0.9914338
-0.8759591 0.26043138 0.81925344
-0.85985887 0.25548595 0.67271936
-0.85922599 0.25497955 0.55571121
-0.85414726 0.25331545 0.44827321
-0.84199673 0.24955718 0.3480759
-0.8384127 0.24818188 0.25747854
-0.84022522 0.24872111 0.17161468
-0.8868745 0.265526 0.90569204
-0.86995238 0.26013598 0.74470848
-0.85256749 0.25478005 0.60850531
-0.85350537 0.25458169 0.49919412
-0.84678686 0.25242195 0.39667568
-0.8432951 0.25122613 0.30294251
-0.83990973 0.25022024 0.21444833
-0.83290333 0.24797997 0.12873179
-0.039274555 0.023314441 3.7141321
-0.55580419 0.17760657 3.7098067
-0.73182398 0.23023055 3.7118428
-1.1206505 0.34674579 3.7973294
-1.0450786 0.32059667 2.6348634
-0.97157747 0.29658145 1.928905
-0.93215573 0.28349608 1.5036055
-0.91886991 0.27893966 1.2263339
-0.20731226 0.07689172 3.6633058
-0.37984672 0.12575856 3.6886673
-0.92324084 0.28931713 3.7625537
-1.0822172 0.3352842 3.1351826
-1.0044683 0.3091071 2.2368479
-0.94918096 0.29084042 1.6939954
-0.91892362 0.28087854 1.3471376
-0.89612186 0.27323687 1.0939147
-0.88815635 0.26793268 0.9914338
-0.8750447 0.26348746 0.81925344
-0.86296576 0.25969094 0.67546082
-0.85833073 0.25797725 0.55571121
-0.85325778 0.25629544 0.44827321
-0.84112054 0.25249478 0.3480759
-0.83754122 0.25110698 0.25747854
-0.83935183 0.25165251 0.17161468
-0.88594222 0.26862016 0.90569204
-0.86903906 0.26317111 0.74470848
-0.85167295 0.25775453 0.60850531
-0.85261154 0.25755945 0.49919412
-0.8459006 0.25537625 0.39667568
-0.84241301 0.25416827 0.30294251
-0.83903122 0.25315055 0.21444833
-0.83681589 0.25232816 0.12893331
-0.039158273 0.023424884 3.7091324
-0.55518085 0.17954561 3.7098067
-0.73101586 0.23278368 3.7118428
-1.1208577 0.35110188 3.8021016
-1.0458189 0.32482237 2.6394658
-0.97282445 0.30067852 1.9332942
-0.93116045 0.28674817 1.5036055
-0.92095429 0.28308734 1.2301713
-0.20704259 0.077614903 3.6633058
-0.37940544 0.12708369 3.6886673
-0.92342323 0.29291832 3.7673931
-1.0826868 0.33957645 3.1398752
-1.0054615 0.31325918 2.241349
-0.94815993 0.29415193 1.6939954
-0.92081606 0.28497553 1.3511276
-0.89840186 0.27736348 1.09759
-0.89062631 0.27207333 0.99493837
-0.87411964 0.26654035 0.81925344
-0.86205399 0.26270166 0.67546082
-0.86166281 0.26226178 0.55803001
-0.85235792 0.25927231 0.44827321
-0.84023404 0.2554293 0.3480759
-0.83665967 0.25402901 0.25747854
-0.83846837 0.25458089 0.17161468
-0.88499916 0.27171105 0.90569204
-0.86811513 0.26620302 0.74470848
-0.85488957 0.26198906 0.61103851
-0.85604727 0.26186171 0.50129217
-0.84500402 0.25832745 0.39667568
-0.84152073 0.25710726 0.30294251
-0.83814245 0.25607777 0.21444833
-0.83592999 0.25524768 0.12893331
-0.039076265 0.023561429 3.7091324
-0.55528903 0.18172449 3.7147462
-0.7301988 0.23533398 3.7118428
-1.1196254 0.35501227 3.8021016
-1.0446787 0.32847098 2.6394658
-0.97405452 0.30478784 1.9376832
-0.93015385 0.2899968 1.5036055
-0.9199605 0.28630036 1.2301713
-0.20677039 0.078337148 3.6633058
-0.37895951 0.1284073 3.6886673
-0.92239517 0.2961399 3.7673931
-1.0847843 0.34439838 3.1492608
-1.0043619 0.31676698 2.241349
-0.9471274 0.29745981 1.6939954
-0.91981566 0.28818801 1.3511276
-0.89742821 0.28049782 1.09759
-0.88967115 0.27518058 0.99493837
-0.87318391 0.26958996 0.81925344
-0.86113173 0.26570919 0.67546082
-0.86074209 0.26526797 0.55803001
-0.8514477 0.26224601 0.44827321
-0.83933729 0.25836071 0.3480759
-0.83576781 0.25694793 0.25747854
-0.8375746 0.25750613 0.17161468
-0.88404536 0.2747986 0.90569204
-0.86718059 0.26923168 0.74470848
-0.85396987 0.26497161 0.61103851
-0.85512805 0.26484829 0.50129217
-0.84409714 0.2612755 0.39667568
-0.84061807 0.26004317 0.30294251
-0.83724344 0.25900188 0.21444833
-0.83503395 0.25816405 0.12893331
-0.038993783 0.023697685 3.7091324
-0.55465138 0.18366171 3.7147462
-0.7303409 0.23819742 3.716738
-1.1198007 0.35937467 3.8068733
-1.0453874 0.33270827 2.6440685
-0.97526789 0.30890945 1.9420724
-0.93181938 0.29408899 1.5077385
-0.92201263 0.29047316 1.2340088
-0.20649569 0.079058431 3.6633058
-0.37901303 0.12990271 3.6936388
-0.92255121 0.29974648 3.7722325
-1.0852184 0.34871098 3.1539536
-1.0053236 0.32093313 2.2458501
-0.94608337 0.30076411 1.6939954
-0.91880417 0.29139704 1.3511276
-0.89644367 0.2836287 1.09759
-0.88870519 0.27828443 0.99493837
-0.87223756 0.27263632 0.81925344
-0.86019903 0.26871347 0.67546082
-0.8640396 0.26959044 0.56034881
-0.85052711 0.26521653 0.44827321
-0.83843035 0.26128897 0.3480759
-0.8395561 0.26132372 0.25841114
-0.83667064 0.26042825 0.17161468
-0.88308072 0.27788284 0.90569204
-0.86623549 0.27225703 0.74470848
-0.85303974 0.26795089 0.61103851
-0.85852891 0.2691896 0.50339019
-0.84317994 0.26422036 0.39667568
-0.83970529 0.2629759 0.30294251
-0.83633429 0.26192284 0.21444833
-0.83889562 0.26256964 0.12913485
-0.038910825 0.023833657 3.7091324
-0.55400687 0.18559669 3.7147462
-0.729505 0.24074534 3.716738
-1.1185393 0.36328128 3.8068733
-1.046079 0.3369545 2.6486709
-0.97418362 0.31231189 1.9420724
-0.93078709 0.29733986 1.5077385
-0.92099303 0.29368982 1.2340088
-0.20621847 0.079778753 3.6633058
-0.37855729 0.1312249 3.6936388
-0.92269331 0.30335778 3.777072
-1.0856355 0.35303083 3.1586463
-1.0041974 0.32444042 2.2458501
-0.94502765 0.30406472 1.6939954
-0.91778141 0.29460248 1.3511276
-0.89544815 0.28675613 1.09759
-0.88772833 0.28138489 0.99493837
-0.87499148 0.27685365 0.82239193
-0.85925579 0.27171451 0.67546082
-0.86309332 0.27260485 0.56034881
-0.8495962 0.2681838 0.44827321
-0.83751315 0.26421404 0.3480759
-0.83863878 0.26425272 0.25841114
-0.83575648 0.26334718 0.17161468
-0.88210535 0.28096366 0.90569204
-0.86527991 0.27527913 0.74470848
-0.85209924 0.27092695 0.61103851
-0.857584 0.27218479 0.50339019
-0.84225255 0.267162 0.39667568
-0.83878219 0.26590541 0.30294251
-0.8401354 0.26633713 0.21513902
-0.83797395 0.26549631 0.12913485
-0.038827393 0.023969335 3.7091324
-0.55409139 0.18777916 3.7196853
-0.72962588 0.24361306 3.7216334
-1.1172645 0.36718351 3.8068733
-1.0467539 0.34120959 2.6532736
-0.97536552 0.31644979 1.9464613
-0.92974353 0.30058709 1.5077385
-0.92301255 0.2978875 1.2378463
-0.20593873 0.080498107 3.6633058
-0.37809691 0.13254552 3.6936388
-0.92162877 0.3065767 3.777072
-1.0860358 0.3573578 3.1633391
-1.0051278 0.32862043 2.2503514
-0.9464404 0.30816931 1.6982613
-0.91674745 0.29780433 1.3511276
-0.89766669 0.29092547 1.1012651
-0.89013648 0.28557152 0.99844289
-0.8740198 0.27990624 0.82239193
-0.85830206 0.2747122 0.67546082
-0.86213648 0.27561596 0.56034881
-0.84865487 0.27114779 0.44827321
-0.83658576 0.26713589 0.3480759
-0.84239125 0.26867118 0.25934377
-0.83483213 0.26626292 0.17161468
-0.88111925 0.28404108 0.90569204
-0.86816108 0.27953681 0.74765164
-0.85114831 0.27389964 0.61103851
-0.8609497 0.27656481 0.50548828
-0.84131485 0.27010038 0.39667568
-0.8378489 0.2688317 0.30294251
-0.83920062 0.26926813 0.21513902
-0.83704209 0.26841977 0.12913485
-0.038743488 0.024104722 3.7091324
-0.55343252 0.18971215 3.7196853
-0.72877103 0.24615845 3.7216334
-1.1173923 0.37155244 3.8116455
-1.0474118 0.34547353 2.657876
-0.97425491 0.31985253 1.9464613
-0.93136317 0.30470586 1.5118713
-0.9250139 0.30210289 1.2416838
-0.20565648 0.081216477 3.6633058
-0.37763193 0.13386452 3.6936388
-0.92174429 0.31019306 3.7819114
-1.086419 0.36169189 3.1680319
-1.0039747 0.33212698 2.2503514
-0.94535893 0.3114711 1.6982613
-0.91570234 0.30100256 1.3511276
-0.89664567 0.29405713 1.1012651
-0.88913423 0.28867692 0.99844289
-0.8730374 0.28295544 0.82239193
-0.85733795 0.27770656 0.67546082
-0.85695446 0.27725995 0.55803001
-0.84770322 0.2741085 0.44827321
-0.83564818 0.27005452 0.3480759
-0.84612304 0.27311903 0.26027638
-0.83389759 0.26917538 0.17161468
-0.88012236 0.28711504 0.90569204
-0.86718005 0.28256553 0.74765164
-0.85018706 0.27686906 0.61103851
-0.85997903 0.27956837 0.50548828
-0.8403669 0.27303547 0.39667568
-0.83690542 0.27175468 0.30294251
-0.83825558 0.27219582 0.21513902
-0.83610004 0.27133995 0.12913485
-0.038659111 0.024239816 3.7091324
-0.55276698 0.19164284 3.7196853
-0.72887075 0.24903031 3.7265284
-1.1160886 0.37545061 3.8116455
-1.0461994 0.34912759 2.657876
-0.97540534 0.32400656 1.9508505
-0.93029386 0.30795509 1.5118713
-0.92395371 0.30532995 1.2416838
-0.20537174 0.081933856 3.6633058
-0.37716237 0.13518187 3.6936388
-0.92065591 0.31340867 3.7819114
-1.0851499 0.36548197 3.1680319
-1.0048734 0.33632061 2.2548525
-0.94674003 0.31559408 1.7025272
-0.91464603 0.30419716 1.3511276
-0.89561373 0.29718521 1.1012651
-0.88812113 0.29177883 0.99844289
-0.87204432 0.28600118 0.82239193
-0.8563633 0.28069752 0.67546082
-0.85598141 0.2802496 0.55803001
-0.84674126 0.27706587 0.44827321
-0.83470047 0.27296981 0.3480759
-0.84516454 0.27607089 0.26027638
-0.83295292 0.27208459 0.17161468
-0.87911481 0.29018548 0.90569204
-0.86618847 0.28559083 0.74765164
-0.84921545 0.27983508 0.61103851
-0.85899794 0.28256857 0.50548828
-0.84389466 0.27744213 0.39831915
-0.83595169 0.27467439 0.30294251
-0.83730036 0.27512023 0.21513902
-0.8351478 0.27425686 0.12913485
-0.03857426 0.024374612 3.7091324
-0.55282778 0.19382864 3.7246246
-0.72895932 0.25190586 3.7314239
-1.1161842 0.3798252 3.8164172
-1.0468253 0.35340241 2.6624784
-0.97426844 0.32740939 1.9508505
-0.92921323 0.31120053 1.5118713
-0.92592204 0.30956978 1.2455213
-0.20508449 0.082650244 3.6633058
-0.37668821 0.1364976 3.6936388
-0.92074466 0.31702986 3.7867508
-1.0838674 0.36926764 3.1680319
-1.0036933 0.3398262 2.2548525
-0.94563264 0.31889689 1.7025272
-0.91643453 0.3083491 1.3551177
-0.89778483 0.30138877 1.1049403
-0.89048135 0.29600227 1.0019474
-0.8710407 0.28904343 0.82239193
-0.85537833 0.28368509 0.67546082
-0.85499793 0.28323582 0.55803001
-0.8501699 0.28147703 0.45014626
-0.8337425 0.2758818 0.3480759
-0.8395316 0.2774778 0.25934377
-0.83199811 0.2749905 0.17161468
-0.87809646 0.29325238 0.90569204
-0.86518627 0.28861266 0.74765164
-0.85232288 0.28416124 0.61357164
-0.85800636 0.28556529 0.50548828
-0.84292102 0.28038618 0.39831915
-0.83960021 0.27912417 0.30411482
-0.83633488 0.2780413 0.21513902
-0.83418536 0.27717039 0.12913485
-0.038488943 0.024509111 3.7091324
-0.55214781 0.19575718 3.7246246
-0.72903669 0.25478506 3.7363191
-1.1148516 0.38371912 3.8164172
-1.0455854 0.35705435 2.6624784
-0.97538716 0.33157927 1.9552395
-0.93078637 0.31534532 1.5160043
-0.92483574 0.31279996 1.2455213
-0.20479472 0.083365612 3.6633058
-0.37620944 0.13781165 3.6936388
-0.9208194 0.32065555 3.7915902
-1.0842034 0.37361118 3.1727247
-1.0045605 0.34403321 2.2593539
-0.94698197 0.32303801 1.7067931
-0.91535258 0.31154618 1.3551177
-0.89672726 0.30452079 1.1049403
-0.88944268 0.2991088 1.0019474
-0.87371635 0.2933211 0.82553035
-0.85438287 0.28666919 0.67546082
-0.85820425 0.28762639 0.56034881
-0.84918219 0.28444299 0.45014626
-0.83277446 0.27879044 0.3480759
-0.8385579 0.28040659 0.25934377
-0.835756 0.27947235 0.17206176
-0.8806048 0.29751095 0.90901756
-0.86417353 0.29163095 0.74765164
-0.85132581 0.28713468 0.61357164
-0.85270315 0.28711021 0.50339019
-0.84193718 0.2833268 0.39831915
-0.83862078 0.2820532 0.30411482
-0.83535922 0.28095892 0.21513902
-0.83321279 0.28008053 0.12913485
-0.038403157 0.024643315 3.7091324
-0.55219245 0.19794591 3.7295637
-0.72814286 0.25732836 3.7363191
-1.1149151 0.38809925 3.8211894
-1.0461792 0.36133993 2.6670809
-0.97422373 0.33498201 1.9552395
-0.92967999 0.31859246 1.5160043
-0.92070568 0.31498864 1.2416838
-0.20450248 0.084079973 3.6633058
-0.37572607 0.13912404 3.6936388
-0.92088002 0.32428554 3.7964296
-1.0845221 0.37796158 3.1774173
-1.0033535 0.34753767 2.2593539
-0.94584864 0.32634166 1.7067931
-0.91425949 0.31473947 1.3551177
-0.89565885 0.30764908 1.1049403
-0.88839316 0.30221173 1.0019474
-0.8726871 0.29636917 0.82553035
-0.85733652 0.29099387 0.67820227
-0.86139017 0.29204276 0.56266761
-0.84818411 0.28740543 0.45014626
-0.83633977 0.28323442 0.34948593
-0.83757395 0.28333202 0.25934377
-0.83477539 0.282388 0.17206176
-0.87956095 0.30058303 0.90901756
-0.8631503 0.29464573 0.74765164
-0.85439813 0.29149666 0.61610484
-0.85169578 0.29008499 0.50339019
-0.8409431 0.286264 0.39831915
-0.83763111 0.28497884 0.30411482
-0.83437341 0.28387317 0.21513902
-0.83223003 0.2829873 0.12913485
-0.038316902 0.024777217 3.7091324
-0.55149812 0.19987223 3.7295637
-0.72819895 0.26021138 3.7412143
-1.1135535 0.39198866 3.8211894
-1.0467558 0.36563402 2.6716835
-0.97531062 0.33916748 1.9596287
-0.93122101 0.32275745 1.5201373
-0.91960055 0.31820059 1.2416838
-0.20420775 0.084793307 3.6633058
-0.37573722 0.14062209 3.6986103
-0.92092651 0.3279199 3.8012691
-1.0848236 0.38231874 3.1821103
-1.0041887 0.35175776 2.263855
-0.94716609 0.33050069 1.7110591
-0.91600096 0.31891987 1.3591076
-0.89457953 0.31077364 1.1049403
-0.89070505 0.30647147 1.005452
-0.87164724 0.29941359 0.82553035
-0.85631549 0.29398477 0.67820227
-0.86036551 0.29504779 0.56266761
-0.84717572 0.29036441 0.45014626
-0.83534598 0.28615209 0.34948593
-0.83657986 0.28625399 0.25934377
-0.83378458 0.2853002 0.17206176
-0.87850636 0.30365145 0.90901756
-0.86593717 0.29897618 0.75059479
-0.85337543 0.29447731 0.61610484
-0.85067797 0.29305616 0.50339019
-0.8399387 0.28919768 0.39831915
-0.84122735 0.28948265 0.30528715
-0.83337748 0.28678396 0.21513902
-0.83123714 0.28589061 0.12913485
-0.038230177 0.024910817 3.7091324
-0.55152649 0.20206374 3.7345033
-0.72728622 0.26275167 3.7412143
-1.1135848 0.39637402 3.8259614
-1.0454731 0.36928567 2.6716835
-0.97412074 0.34256989 1.9596287
-0.9300887 0.32600605 1.5201373
-0.91848421 0.32140866 1.2416838
-0.20417623 0.085618459 3.6682975
-0.37524405 0.14193282 3.6986103
-0.91977626 0.33113256 3.8012691
-1.0851078 0.38668254 3.1868029
-1.0050067 0.35598794 2.2683563
-0.94600666 0.33380491 1.7110591
-0.91488212 0.32211536 1.3591076
-0.89348924 0.31389445 1.1049403
-0.88962984 0.30957872 1.005452
-0.8742736 0.30373189 0.82866883
-0.85528415 0.29697207 0.67820227
-0.86351556 0.29950094 0.56498641
-0.84615695 0.29331985 0.45014626
-0.834342 0.28906626 0.34948593
-0.83557552 0.28917244 0.25934377
-0.83278358 0.2882089 0.17206176
-0.87744105 0.30671614 0.90901756
-0.86488831 0.30199704 0.75059479
-0.85234231 0.29745436 0.61610484
-0.84964985 0.29602382 0.50339019
-0.84338361 0.29368082 0.39996269
-0.84021175 0.29241729 0.30528715
-0.83237135 0.28969124 0.21513902
-0.83023417 0.2887904 0.12913485
-0.03814299 0.025044113 3.7091324
-0.55081779 0.2039877 3.7345033
-0.72636461 0.26528877 3.7412143
-1.1135988 0.40076441 3.8307333
-1.0460175 0.37359002 2.676286
-0.97517544 0.34677073 1.9640176
-0.93159735 0.33019093 1.5242703
-0.91735673 0.3246128 1.2416838
-0.20387612 0.086330645 3.6682975
-0.37524405 0.14343265 3.7035818
-0.91979587 0.33477125 3.8061085
-1.0869983 0.39163816 3.1961884
-1.0058073 0.36022809 2.2728574
-0.94483572 0.33710507 1.7110591
-0.91375214 0.32530692 1.3591076
-0.89238811 0.31701139 1.1049403
-0.88854378 0.31268224 1.005452
-0.87320799 0.30678183 0.82866883
-0.85818756 0.30134124 0.68094373
-0.86246479 0.30251333 0.56498641
-0.84512794 0.29627168 0.45014626
-0.83332789 0.29197687 0.34948593
-0.83456105 0.29208738 0.25934377
-0.83647287 0.29275924 0.17250884
-0.87636507 0.30977711 0.90901756
-0.8676402 0.30636016 0.75353795
-0.85129881 0.30042776 0.61610484
-0.84861135 0.29898784 0.50339019
-0.84235334 0.29662302 0.39996269
-0.83918589 0.29534844 0.30528715
-0.83135504 0.292595 0.21513902
-0.82922101 0.29168671 0.12913485
-0.038055342 0.025177104 3.7091324
-0.55010241 0.20590918 3.7345033
-0.72638929 0.26817557 3.7461095
-1.1135957 0.40515965 3.8355052
-1.0465446 0.37790278 2.6808887
-0.97395903 0.35017258 1.9640176
-0.93043911 0.33344081 1.5242703
-0.91621804 0.327813 1.2416838
-0.20357354 0.08704178 3.6682975
-0.37474108 0.14474161 3.7035818
-0.91980129 0.33841413 3.8109479
-1.0872462 0.39602092 3.2008812
-1.0045438 0.36373678 2.2728574
-0.94610643 0.34128624 1.715325
-0.91261101 0.32849452 1.3591076
-0.89127612 0.32012448 1.1049403
-0.88744688 0.31578189 1.005452
-0.87213182 0.30982801 0.82866883
-0.85713041 0.30433503 0.68094373
-0.85722864 0.30404118 0.56266761
-0.84408861 0.29921991 0.45014626
-0.83682525 0.29648602 0.35089597
-0.83353645 0.29499874 0.25934377
-0.83544588 0.29567727 0.17250884
-0.87879431 0.31409112 0.91234308
-0.86656547 0.30938688 0.75353795
-0.85024494 0.30339754 0.61610484
-0.84756249 0.30194822 0.50339019
-0.84131277 0.29956156 0.39996269
-0.83814985 0.29827592 0.30528715
-0.83032864 0.29549518 0.21513902
-0.82819778 0.29457948 0.12913485
-0.037967224 0.02530979 3.7091324
-0.5493803 0.20782813 3.7345033
-0.72544873 0.27070951 3.7461095
-1.1135756 0.40955979 3.8402774
-1.0452191 0.38155359 2.6808887
-0.97273082 0.35357022 1.9640176
-0.92926955 0.33668664 1.5242703
-0.91506815 0.33100918 1.2416838
-0.20326845 0.08775185 3.6682975
-0.37423357 0.14604883 3.7035818
-0.91861439 0.34162277 3.8109479
-1.0858572 0.39981371 3.2008812
-1.0053122 0.3679896 2.2773588
-0.94490933 0.34458667 1.715325
-0.91429037 0.33270872 1.3630977
-0.89333975 0.32439092 1.1086154
-0.88633919 0.31887776 1.005452
-0.87104499 0.31287044 0.82866883
-0.85606289 0.30732512 0.68094373
-0.85616213 0.30703163 0.56266761
-0.84303904 0.30216452 0.45014626
-0.83578521 0.29940531 0.35089597
-0.83712661 0.29956165 0.26027638
-0.8297199 0.29691383 0.17206176
-0.87769258 0.31715676 0.91234308
-0.86548024 0.31240988 0.75353795
-0.8532356 0.30782664 0.61863804
-0.84650332 0.30490494 0.50339019
-0.840262 0.30249646 0.39996269
-0.83710355 0.30119979 0.30528715
-0.82929206 0.29839176 0.21513902
-0.82716447 0.2974686 0.12913485
-0.037878644 0.025442166 3.7091324
-0.54937708 0.21002236 3.7394423
-0.72545189 0.27359971 3.7510047
-1.1135381 0.41396472 3.8450491
-1.0457135 0.38587627 2.6854911
-0.97149068 0.35696352 1.9640176
-0.92808861 0.33992833 1.5242703
-0.91390717 0.33420137 1.2416838
-0.20322505 0.088577405 3.6732893
-0.37421718 0.14755031 3.7085533
-0.91859287 0.34526974 3.8157876
-1.0860721 0.40420365 3.205574
-1.0040215 0.37149656 2.2773588
-0.94614768 0.34878516 1.7195909
-0.91312343 0.33589816 1.3630977
-0.8922019 0.32750726 1.1086154
-0.8885721 0.32318884 1.0089566
-0.86994761 0.31590906 0.82866883
-0.85498488 0.31031147 0.68094373
-0.85508513 0.3100183 0.56266761
-0.84633762 0.30668491 0.45201927
-0.83022475 0.30068728 0.34948593
-0.83607584 0.30248192 0.26027638
-0.82867843 0.29980829 0.17206176
-0.88008714 0.32149988 0.91566855
-0.86438447 0.31542909 0.75353795
-0.85215592 0.31080312 0.61863804
-0.84969836 0.3094109 0.50548828
-0.84363836 0.30704275 0.4016062
-0.83147925 0.30245835 0.30411482
-0.82824546 0.30128473 0.21513902
-0.83081627 0.3020612 0.12933637
-0.037789606 0.025574233 3.7091324
-0.54864061 0.21193877 3.7394423
-0.72544384 0.27649325 3.7558999
-1.1134837 0.41837436 3.8498213
-1.0443602 0.38952413 2.6854911
-0.97248381 0.36118656 1.9684068
-0.92689639 0.3431659 1.5242703
-0.91273499 0.33738944 1.2416838
-0.20291461 0.089286253 3.6732893
-0.37369987 0.14885567 3.7085533
-0.91738206 0.34847412 3.8157876
-1.0862697 0.40860006 3.2102668
-1.0047575 0.37576172 2.2818599
-0.94736832 0.35299653 1.7238568
-0.91476965 0.34013388 1.3670877
-0.89423162 0.33179915 1.1122906
-0.88743848 0.32628855 1.0089566
-0.86883956 0.3189438 0.82866883
-0.8538965 0.31329402 0.68094373
-0.84983867 0.31147671 0.56034881
-0.84526193 0.30963731 0.45201927
-0.83367461 0.30523282 0.35089597
-0.83501494 0.30539855 0.26027638
-0.83230382 0.30440968 0.17250884
-0.87895954 0.32457 0.91566855
-0.86327815 0.31844443 0.75353795
-0.85106581 0.31377578 0.61863804
-0.84861314 0.31237501 0.50548828
-0.84256148 0.30998573 0.4016062
-0.83041841 0.30535892 0.30411482
-0.82718873 0.30417401 0.21513902
-0.8297568 0.30495942 0.12933637
-0.037700102 0.025705986 3.7091324
-0.54789746 0.21385258 3.7394423
-0.72447425 0.27902383 3.7558999
-1.1120166 0.42225859 3.8498213
-1.0448222 0.39385656 2.6900938
-0.9712171 0.36457896 1.9684068
-0.92832834 0.3473857 1.5284033
-0.91455412 0.3416954 1.2455213
-0.2026017 0.089994013 3.6732893
-0.37317798 0.15015922 3.7085533
-0.91733342 0.35212493 3.8206267
-1.0848368 0.4123894 3.2102668
-1.0034398 0.37926665 2.2818599
-0.94613039 0.35630131 1.7238568
-0.91357672 0.34332493 1.3670877
-0.89306802 0.33491856 1.1122906
-0.88963693 0.33062682 1.0124611
-0.86772096 0.32197469 0.82866883
-0.85279769 0.3162728 0.68094373
-0.84874618 0.31444132 0.56034881
-0.84852338 0.31419584 0.45389232
-0.83260411 0.30814105 0.35089597
-0.83855116 0.31001481 0.26120901
-0.83123612 0.30731308 0.17250884
-0.87782127 0.32763615 0.91566855
-0.86594856 0.32286811 0.75648111
-0.85400468 0.31825009 0.62117118
-0.85177124 0.31691808 0.5075863
-0.8459003 0.31457096 0.40324971
-0.82934743 0.30825573 0.30411482
-0.82612193 0.30705956 0.21513902
-0.82868725 0.307854 0.12933637
-0.03761014 0.025837429 3.7091324
-0.54714763 0.21576382 3.7394423
-0.72444463 0.28192055 3.7607951
-1.1119294 0.42667264 3.854593
-1.0434411 0.39750126 2.6900938
-0.97217768 0.36881658 1.9727957
-0.92711014 0.35062405 1.5284033
-0.91335583 0.34488571 1.2455213
-0.2025492 0.090819977 3.6782808
-0.37265155 0.15146095 3.7085533
-0.91609871 0.35532486 3.8206267
-1.0850015 0.4167926 3.2149594
-1.0041435 0.38354397 2.2863612
-0.9448809 0.35960177 1.7238568
-0.91237277 0.34651181 1.3670877
-0.89189345 0.33803388 1.1122906
-0.88847739 0.33373022 1.0124611
-0.87023616 0.32636854 0.83180726
-0.8516885 0.31924766 0.68094373
-0.85179186 0.31895557 0.56266761
-0.84742147 0.31715584 0.45389232
-0.83152336 0.3110455 0.35089597
-0.83746392 0.31294003 0.26120901
-0.83482325 0.31195602 0.17295592
-0.87667227 0.33069834 0.91566855
-0.86481631 0.32588887 0.75648111
-0.85288864 0.32122919 0.62117118
-0.85490781 0.32148698 0.50968438
-0.84479702 0.31752178 0.40324971
-0.83281654 0.31285822 0.30528715
-0.82504505 0.30994141 0.21513902
-0.82760757 0.31074476 0.12933637
-0.037519723 0.025968553 3.7091324
-0.54639113 0.21767239 3.7394423
-0.72345608 0.28444761 3.7607951
-1.1104332 0.43055141 3.854593
-1.0438703 0.40184319 2.6946962
-0.97312063 0.37306538 1.977185
-0.92850906 0.35486293 1.5325361
-0.91214639 0.34807181 1.2455213
-0.20223095 0.091526456 3.6782808
-0.37261349 0.15296377 3.7135248
-0.91602302 0.35897931 3.8254664
-1.0851488 0.42120206 3.2196524
-1.0048294 0.38783082 2.2908626
-0.94605404 0.36383414 1.7281228
-0.91115767 0.34969449 1.3670877
-0.89387393 0.34235784 1.1159657
-0.89064109 0.3380954 1.0159656
-0.86909157 0.32940423 0.83180726
-0.85056895 0.32221866 0.68094373
-0.85067332 0.32192692 0.56266761
-0.84630924 0.32011193 0.45389232
-0.83043259 0.31394616 0.35089597
-0.83636647 0.31586143 0.26120901
-0.83372927 0.31486818 0.17295592
-0.87551254 0.33375648 0.91566855
-0.86367351 0.32890567 0.75648111
-0.85176212 0.32420439 0.62117118
-0.85802293 0.3260816 0.51178247
-0.84368354 0.32046875 0.40324971
-0.8317194 0.31576338 0.30528715
-0.8239581 0.31281945 0.21513902
-0.82651782 0.31363174 0.12933637
-0.037428848 0.026099363 3.7091324
-0.54562801 0.21957834 3.7394423
-0.723405 0.28734738 3.7656903
-1.1103134 0.43496957 3.8593652
-1.044282 0.40619293 2.6992986
-0.97181249 0.37645993 1.977185
-0.92988974 0.35911584 1.5366691
-0.91092581 0.35125369 1.2455213
-0.20191023 0.09223181 3.6782808
-0.37207726 0.15426351 3.7135248
-0.91476434 0.36217466 3.8254664
-1.0852784 0.42561758 3.2243452
-1.0034695 0.39133596 2.2908626
-0.9447782 0.36713427 1.7281228
-0.90993142 0.35287291 1.3670877
-0.89267343 0.345476 1.1159657
