# .PCD v0.7 - Point Cloud Data file format
VERSION 0.7
FIELDS x y z
SIZE 4 4 4
TYPE F F F
COUNT 1 1 1
WIDTH 1537
HEIGHT 1
VIEWPOINT 0 0 0 1 0 0 0
POINTS 1537
DATA ascii
5.0750742 -1.2070941 9.6273499
3.0100746 -0.71259224 4.615716
3.9073596 -0.92288244 4.8834753
0.22498222 -0.067776524 3.9029055
0.42410374 -0.11145071 4.0466156
2.9450853 -0.72374469 11.713728
3.9170589 -0.94895411 11.014337
3.4857378 -0.83739728 7.4762607
5.5796509 -1.3333008 9.4537287
3.3735237 -0.80362326 4.6668377
4.3121715 -1.0240731 4.8830094
4.368453 -1.0237595 4.4889712
5.4720836 -1.2793989 4.6136475
5.7514958 -1.3436753 3.956996
5.1954598 -1.2118655 2.8791485
5.3599997 -1.249265 2.3119409
4.709743 -1.0968448 1.511353
5.1965394 -1.225495 4.8364329
5.0267763 -1.1836144 3.8438563
6.1072516 -1.4369128 3.7724457
5.6345849 -1.3225963 2.7629926
4.579566 -1.0741116 1.7262745
0.040189322 -0.020677105 3.6591341
3.909863 -0.99994349 25.65493
3.3731034 -0.8283627 11.150957
3.465621 -0.84215337 8.4616594
5.0778141 -1.2264891 9.6405172
2.9966245 -0.72046351 4.599184
0.22474426 -0.06856145 3.9029055
0.4237121 -0.11293044 4.0466156
2.9449801 -0.73462915 11.723407
3.9690218 -0.97622466 11.169199
3.4933681 -0.85213935 7.4987664
6.2233167 -1.5055152 8.5531216
4.3613834 -1.0381762 4.4854665
5.4372883 -1.2912971 4.5885396
5.8281388 -1.3830533 4.0118251
5.2687864 -1.2483778 2.920887
5.274404 -1.2487419 2.2782264
4.7805762 -1.1309482 1.5339135
4.9911647 -1.1936325 3.8203113
6.0938129 -1.4562185 3.7673795
5.6652513 -1.350677 2.7797771
4.58957 -1.0933739 1.7312051
0.040116899 -0.020817263 3.6591341
3.9040921 -1.0129998 25.640112
3.3832262 -0.843382 11.193905
3.4645569 -0.8547135 8.4662619
5.0828056 -1.2464883 9.6580734
2.9940913 -0.73091936 4.599184
4.1063576 -1.0002046 5.1367507
0.22422811 -0.069259159 3.8979139
0.42331535 -0.11440878 4.0466156
2.9021871 -0.7347222 11.563705
4.0040979 -0.99968863 11.277132
3.503051 -0.86746836 7.5257745
5.2891212 -1.3029718 8.9802113
6.232655 -1.5308233 8.5730715
4.0250239 -0.98561132 4.5706201
4.3438673 -1.050042 4.4714484
8.0019569 -1.9299276 6.7195516
5.8883162 -1.4190637 4.0556884
5.9405742 -1.4294721 3.2849386
5.4367886 -1.3072463 2.3475285
4.7765994 -1.1476287 1.5339135
5.5905662 -1.35969 5.2055635
4.9712567 -1.2072322 3.8085387
6.0090976 -1.4581659 3.719249
5.8590016 -1.4185029 2.8741896
0.040043991 -0.020957172 3.6591341
3.8990297 -1.0262258 25.630234
3.38605 -0.85665119 11.212992
3.4672375 -0.86822569 8.4800692
5.0621557 -1.260173 9.6273499
3.0051787 -0.74475104 4.6198487
4.1059527 -1.0153018 5.1405883
0.22398499 -0.07004144 3.8979139
0.4229134 -0.11588573 4.0466156
2.8886478 -0.742033 11.52015
4.0039296 -1.0145072 11.286518
3.5063353 -0.88128304 7.5392776
5.332613 -1.3334478 9.061264
4.1202598 -1.0241909 4.6808753
4.3090043 -1.0575479 4.4399071
7.9724879 -1.9522932 6.7007208
5.8914499 -1.4415969 4.0611715
6.2152586 -1.518541 3.4356606
5.6483669 -1.378994 2.437434
4.6141114 -1.1256391 1.4859724
5.647409 -1.3944124 5.2620974
4.9513144 -1.2207075 3.796766
5.9370008 -1.4626337 3.6787181
5.6160183 -1.3804445 2.7608948
5.109199 -1.2549237 1.9202086
0.039970592 -0.021096824 3.6591341
3.8931715 -1.0392284 25.615416
3.3859308 -0.86920792 11.222536
3.4603987 -0.87936085 8.4708633
5.025218 -1.2696217 9.5659027
2.9916449 -0.75249052 4.6033173
0.22401398 -0.070911162 3.9029055
0.4225063 -0.11736126 4.0466156
2.88604 -0.75211173 11.52015
3.9936788 -1.0267584 11.267747
3.5348787 -0.90158814 7.6067963
5.3279262 -1.352054 9.061264
4.2054129 -1.0609592 4.7801046
4.211854 -1.0493046 4.3452845
7.9580698 -1.9782323 6.6944437
5.8011618 -1.4409842 4.0036006
6.2056203 -1.5391606 3.4333417
5.4500289 -1.3507464 2.3568938
4.6101542 -1.1417384 1.4859724
5.6425071 -1.4141171 5.2620974
4.9431019 -1.2370021 3.7938228
5.9318585 -1.4833487 3.6787181
5.3117261 -1.3253256 2.618227
5.0498042 -1.2590417 1.9004865
0.039896708 -0.021236219 3.6591341
3.8880205 -1.0524056 25.605537
3.3872097 -0.88215059 11.236853
3.4554167 -0.89094675 8.4662619
4.9905953 -1.2794228 9.5088444
2.9889998 -0.76292872 4.6033173
3.7353544 -0.95137727 4.6915998
0.22376509 -0.071692683 3.9029055
0.42158112 -0.11869041 4.0416441
3.9232786 -1.0232698 11.080036
3.5317101 -0.91392165 7.6067963
5.323174 -1.3706437 9.061264
4.2345257 -1.0840404 4.8168564
3.775986 -0.9547224 3.9072163
7.9511156 -2.0059991 6.6944437
5.9096241 -1.4898468 4.0803618
6.1142945 -1.5391846 3.386966
4.6014886 -1.1566545 1.4845623
5.637537 -1.4338044 5.2620974
5.8006339 -1.4731389 4.441318
5.8973966 -1.496623 3.6609859
5.1882772 -1.3137783 2.5615797
0.039822336 -0.021375354 3.6591341
3.8820751 -1.0653539 25.590719
3.4072008 -0.90006965 11.313205
3.4314947 -0.89756417 8.4156342
2.9754221 -0.77053559 4.5867853
3.7320108 -0.96441031 4.6915998
0.22351348 -0.072473332 3.9029055
0.42116421 -0.12016128 4.0416441
3.0470483 -0.81684053 12.183152
3.9280241 -1.0391654 11.103499
3.57061 -0.93729973 7.6968203
5.2956467 -1.3832842 9.0228701
3.2655594 -0.85055071 4.5431471
4.2143097 -1.0945538 4.7984805
4.138793 -1.0618436 4.278698
7.8083205 -1.9989891 6.58146
5.904388 -1.5104662 4.0803618
5.9114532 -1.5100834 3.2803011
4.78016 -1.220206 2.0815578
4.6253123 -1.1798238 1.4930226
5.6324973 -1.4534744 5.2620974
5.8424258 -1.5054812 4.4766359
5.8545647 -1.507525 3.6381872
5.0342045 -1.2934793 2.4902461
4.4554439 -1.1439476 1.6901174
0.039747477 -0.021514229 3.6591341
3.8775845 -1.0786901 25.585781
3.4025962 -0.9115712 11.308433
3.4132342 -0.9055286 8.3788137
3.8306155 -1.0105741 7.3274722
2.9727142 -0.78091699 4.5867853
3.7193203 -0.97499317 4.6800876
0.22325912 -0.073253103 3.9029055
0.42023027 -0.12148215 4.0366726
3.0441785 -0.82747167 12.183152
3.6262186 -0.96544147 7.8228545
5.2252393 -1.3843938 8.9119558
3.2654839 -0.86271417 4.5471373
4.2071848 -1.108394 4.7948055
4.1833787 -1.0888611 4.3277617
6.4224596 -1.6681012 5.432785
5.700316 -1.4773628 3.1689985
4.8162622 -1.2473453 2.0984151
5.6418376 -1.4769088 5.2753992
5.7511024 -1.5033759 4.4118867
5.870121 -1.5333998 3.6508532
5.1087103 -1.3316503 2.5280108
4.4422836 -1.1571124 1.6868303
0.039672136 -0.021652844 3.6591341
3.8722997 -1.091797 25.575903
3.395072 -0.92226881 11.294116
3.8270648 -1.0239394 7.3274722
2.9618127 -0.78911543 4.5743866
3.7189922 -0.98879373 4.6839252
0.22272848 -0.073939852 3.8979139
0.4187808 -0.12264762 4.0267296
3.0521774 -0.84109885 12.226707
3.8707194 -1.0529716 10.962717
3.8939431 -1.0512971 8.403511
5.202744 -1.3978876 8.8820944
3.2537205 -0.87176794 4.5351672
4.1738129 -1.1151968 4.7617288
4.1554155 -1.0970844 4.3032298
6.4730558 -1.7053843 5.4798617
5.4766297 -1.4398082 3.05074
5.1273441 -1.3460767 1.6481261
5.6402564 -1.4975517 5.2787247
5.6676788 -1.5027232 4.3530231
5.7772255 -1.5306951 3.5976565
5.2663779 -1.3923991 2.6056387
4.4382176 -1.1726117 1.6868303
0.039596315 -0.021791194 3.6591341
3.866971 -1.1048801 25.566025
3.37888 -0.93054652 11.251168
3.9345655 -1.0733116 9.6675205
3.8142219 -1.0347836 7.3099165
2.9753397 -0.80385327 4.599184
3.7526543 -1.0117826 4.7299752
0.22246903 -0.074716866 3.8979139
0.41783923 -0.12395659 4.0217581
3.0056412 -0.83957136 12.052487
3.8320854 -1.0568407 10.864168
4.0309281 -1.1033947 8.7050924
5.1928 -1.4146689 8.8735628
3.2535655 -0.88391024 4.5391569
4.1469898 -1.1235534 4.7360029
4.1205568 -1.1032813 4.2716894
4.0754576 -1.0889294 3.4838033
4.8459535 -1.2939061 3.3730636
5.3816843 -1.4349494 3.0020452
4.6327314 -1.2343876 2.0253668
5.1133437 -1.3614979 1.6453061
3.9296582 -1.0580535 3.7057631
5.5062652 -1.480516 4.2352967
5.7385421 -1.5419031 3.5773909
5.3973789 -1.4472117 2.6706784
4.6712832 -1.2516507 1.7722929
0.039520007 -0.021929277 3.6591341
3.8615978 -1.1179394 25.556145
3.3626714 -0.93872267 11.20822
3.932678 -1.0875599 9.672123
3.8036585 -1.0461859 7.2967491
5.4857068 -1.5027086 8.4262943
3.7862012 -1.0350184 4.7760253
0.22193392 -0.075398929 3.8929219
0.4163833 -0.12510657 4.0118151
2.9156144 -0.82540095 11.704049
3.532548 -0.98750359 10.028856
4.0983729 -1.137251 8.8581333
5.1878304 -1.4327866 8.8735628
3.2533655 -0.89606208 4.5431471
4.133235 -1.1353281 4.724977
4.0753808 -1.1064447 4.2296348
4.0603609 -1.100095 3.4743876
4.9059858 -1.3282986 3.4169269
5.2312503 -1.4144146 2.9232059
4.5746889 -1.2360404 2.0028903
5.099297 -1.3768375 1.642486
6.043889 -1.6499773 5.6611571
5.4854646 -1.4954747 4.2235241
5.6374631 -1.5358626 3.5191278
5.2740469 -1.4338939 2.6140308
4.6668859 -1.2679489 1.7722929
0.039407834 -0.022041565 3.6541343
3.8561807 -1.1309745 25.546267
3.3579381 -0.95004839 11.203448
3.889354 -1.0902066 9.57547
3.7884481 -1.0562403 7.2748032
5.4587359 -1.5158243 8.3932314
0.22166936 -0.076173171 3.8929219
0.41492441 -0.12624793 4.0018721
2.8897591 -0.82898635 11.6121
3.5240982 -0.99841702 10.014778
5.1953545 -1.4544021 8.8948917
3.2821424 -0.91632658 4.5870371
4.1031199 -1.1424737 4.6955757
4.1127543 -1.132021 4.2716894
4.0564961 -1.1142616 3.4743876
4.9053512 -1.3465225 3.4196684
5.3288136 -1.4607738 2.978857
4.4183269 -1.2103566 1.9392073
4.9371481 -1.3515637 1.5945448
3.9149787 -1.0834697 3.6991122
5.6486888 -1.5601223 3.5292604
5.2033792 -1.4342052 2.5825603
4.5212998 -1.2453574 1.721344
0.039330658 -0.022178991 3.6541343
3.8499751 -1.1437644 25.531448
3.358906 -0.96299839 11.217764
3.8836458 -1.1032425 9.5708675
3.77091 -1.0655502 7.2484689
3.0778184 -0.8662256 4.7686348
4.2972994 -1.2070483 5.4207263
0.22140212 -0.076946475 3.8929219
0.41295338 -0.12722316 3.9869576
2.9001248 -0.84292835 11.665334
3.5305436 -1.0135698 10.042934
3.8809783 -1.1061592 8.4080124
5.2002821 -1.475376 8.9119558
3.2905216 -0.93105966 4.6029978
4.1219459 -1.1632348 4.721302
6.5161076 -1.8143898 5.5363541
5.7465806 -1.5990375 3.9953761
5.9852338 -1.6632036 3.3382711
4.4051414 -1.2232912 1.9354613
4.9231558 -1.3662238 1.5917249
3.878818 -1.0880527 3.6691828
5.7551265 -1.6122404 4.435432
5.6432085 -1.5798303 3.5292604
4.9448161 -1.3815264 2.4608731
4.562408 -1.2738311 1.7377791
0.039252996 -0.022316143 3.6541343
3.8444712 -1.1567484 25.52157
3.3626912 -0.97679949 11.241624
3.8365903 -1.1043615 9.4650087
3.7786801 -1.0820035 7.2704148
4.2930598 -1.2220414 5.4207263
0.22086023 -0.077621952 3.8879304
0.41148934 -0.1283454 3.9770145
2.894753 -0.85233623 11.655655
3.526984 -1.0258875 10.042934
3.8708196 -1.1178876 8.3945093
5.1900873 -1.4920779 8.9034243
3.2843549 -0.94170946 4.5990076
4.0917845 -1.1701586 4.6919007
3.7684462 -1.0656044 3.9282434
6.4497986 -1.8202093 5.4861388
5.7127924 -1.611142 3.976186
5.9793916 -1.6840857 3.3382711
4.3696065 -1.2298682 1.9223502
5.1631036 -1.4522419 1.6664566
3.795984 -1.0791233 3.5960217
5.7689047 -1.6378394 4.4501472
4.7827578 -1.3542643 2.3853433
4.3807268 -1.2396047 1.6736822
0.039174858 -0.022453027 3.6541343
3.8381798 -1.1694814 25.506752
3.3549652 -0.9872672 11.227308
3.8420897 -1.1204821 9.4880219
3.7725799 -1.0945196 7.2660255
3.3420343 -0.96582294 5.1819296
4.3072457 -1.2423494 5.4437509
0.22058794 -0.078392424 3.8879304
0.41002253 -0.12945899 3.9670715
2.8989873 -0.86459154 11.684691
3.5531766 -1.0469733 10.127404
5.2799978 -1.5379015 9.0655289
3.3591752 -0.97586632 4.706738
4.042088 -1.1712247 4.6404486
3.7407057 -1.0718753 3.9037118
4.0483475 -1.1577495 3.4775262
5.6548681 -1.616136 3.940547
4.3652868 -1.2451135 1.9223502
5.1580024 -1.4702556 1.6664566
3.7347884 -1.0758303 3.5428135
5.6971169 -1.6389691 4.4001141
5.9261928 -1.7037572 3.7091162
4.9001513 -1.4059999 2.4440887
4.3219023 -1.2392695 1.6539601
0.039061222 -0.022563616 3.6491344
3.8325899 -1.1824138 25.496874
3.3772476 -1.0066483 11.313205
3.838155 -1.1338866 9.4880219
3.7825229 -1.111734 7.2923598
3.3386426 -0.97748291 5.1819296
4.3336487 -1.2663677 5.4821262
0.22031294 -0.079161942 3.8879304
0.40855294 -0.13056388 3.9571285
2.8851223 -0.87143397 11.641136
3.5495005 -1.0593698 10.127404
3.8044796 -1.1275612 8.2684746
5.3296285 -1.572561 9.15938
3.5031722 -1.0309752 4.9102292
3.7095428 -1.0769715 3.8756754
4.0480199 -1.1729571 3.4806647
5.5809126 -1.6160928 3.8939421
5.2057686 -1.5054971 2.9232059
4.3208308 -1.2487592 1.9054928
4.8809266 -1.4097166 1.5832646
5.6215115 -1.6384863 4.347137
5.9202094 -1.7244332 3.7091162
4.9213614 -1.4306978 2.456677
0.03898222 -0.022699827 3.6491344
3.8262136 -1.1950897 25.482056
3.373713 -1.0184309 11.313205
3.8210721 -1.1433567 9.4558048
3.3433042 -0.99153161 5.1943288
4.3292017 -1.2814871 5.4821262
0.22003528 -0.079930499 3.8879304
0.40708062 -0.1316601 3.9471855
2.9036987 -0.88811845 11.728246
3.5441289 -1.0712541 10.122711
3.7838404 -1.1358271 8.2324648
5.3840785 -1.6090792 9.2617626
3.603508 -1.074188 5.0538702
3.5301342 -1.0496447 4.0707979
5.2453599 -1.5427505 5.4527211
4.047636 -1.1881765 3.4838033
5.5431385 -1.6261473 3.8720102
5.2047329 -1.5249048 2.9255247
4.2808528 -1.2534124 1.8905085
4.8391438 -1.4159682 1.5719843
4.3143997 -1.2754836 4.0881953
5.8604045 -1.729228 3.6761849
4.9076309 -1.4453036 2.452481
5.2735143 -1.5520635 2.0023839
0.038902748 -0.022835761 3.6491344
3.8205373 -1.2079699 25.472178
3.3301678 -1.0179812 11.179588
3.9273689 -1.1901189 9.727354
4.7744241 -1.4395765 9.2059984
3.2940068 -0.98943305 5.1240687
4.309351 -1.2919884 5.4629388
0.21975493 -0.08069808 3.8879304
0.4056057 -0.13274767 3.9372425
3.0662761 -0.94957179 12.396087
3.5403681 -1.0836189 10.122711
3.7798526 -1.1490282 8.2324648
5.4033904 -1.6354189 9.3044224
3.6631987 -1.1059204 5.1416507
3.5881257 -1.0805353 4.1406264
5.2570314 -1.5661417 5.4702439
4.9642558 -1.4751608 3.4799805
5.2121186 -1.5468447 2.9324811
4.272007 -1.2670295 1.8886355
4.8525686 -1.4383042 1.5776244
4.3278055 -1.2958913 4.1048231
5.0600357 -1.5132366 3.929208
5.8295512 -1.7422675 3.6609859
4.976491 -1.4844807 2.488148
5.2635388 -1.569113 2.0007405
0.038822796 -0.02297142 3.6491344
3.8155572 -1.2210617 25.467237
3.3365757 -1.0326893 11.212992
3.9231908 -1.2038207 9.727354
4.7739501 -1.4576323 9.214776
4.246542 -1.2893294 5.3900256
0.21947192 -0.081464671 3.8879304
0.40463397 -0.13399459 3.932271
3.0773354 -0.96478236 12.45416
3.5299709 -1.093927 10.103941
3.7778995 -1.1628559 8.2369661
5.3901677 -1.6519774 9.2916241
3.6132104 -1.1046047 5.0778103
3.6102738 -1.1009649 4.1700277
5.2242188 -1.5762414 5.4422073
5.5113955 -1.6597533 4.7234936
4.9310489 -1.4840449 3.4607904
5.206687 -1.565029 2.9324811
4.2675581 -1.2819339 1.8886355
4.856708 -1.4579928 1.5804446
4.9928274 -1.512144 3.8821175
5.7202859 -1.731385 3.5976565
4.3539047 -1.3145053 1.6720387
0.038742375 -0.023106795 3.6491344
3.8090544 -1.2336547 25.452421
3.3571656 -1.0519184 11.294116
4.8100195 -1.4870212 9.2937794
4.2113791 -1.2947255 5.3516507
0.2191862 -0.082230277 3.8879304
0.40315321 -0.13506652 3.922328
3.0559781 -0.9698143 12.381569
3.5228376 -1.105209 10.094555
3.7946005 -1.1825134 8.2819786
3.5949402 -1.1127552 5.0578599
3.5804949 -1.1055585 4.1406264
5.201632 -1.5892575 5.424685
5.5092912 -1.6801168 4.7266316
4.9298382 -1.5024674 3.463532
4.2807984 -1.3022195 1.8961276
4.8378205 -1.470751 1.5762146
5.3037763 -1.6285722 5.0226612
4.9527397 -1.5188968 3.855629
5.6853561 -1.7424994 3.5799241
5.365284 -1.6413344 2.6811688
0.038661484 -0.023241891 3.6491344
3.8032482 -1.2464592 25.442543
3.3534734 -1.0636307 11.294116
3.914691 -1.2311801 9.727354
4.7933712 -1.5002252 9.2718344
4.194592 -1.3056076 5.3363008
0.21889783 -0.082994878 3.8879304
0.40217462 -0.13630137 3.9173565
3.0525742 -0.98047572 12.381569
3.5156689 -1.1164546 10.085169
3.7904499 -1.1957518 8.2819786
2.7510288 -0.86415166 4.7867975
3.5881588 -1.1243962 5.0538702
3.5571995 -1.1119809 4.1185751
5.192646 -1.6063509 5.4211802
5.5182691 -1.7039311 4.7391858
4.9605231 -1.5307636 3.4882052
5.9068284 -1.8205395 3.3220396
4.3426843 -1.3376247 1.9242231
4.8234873 -1.4848064 1.5733944
5.2909284 -1.644859 5.0160098
5.3595219 -1.6600528 2.6811688
4.3401108 -1.3434725 1.6703953
0.03861459 -0.023403451 3.6541343
3.797399 -1.2592382 25.432663
3.3795867 -1.0849125 11.394328
3.9047847 -1.2430593 9.7135458
0.2186068 -0.083758473 3.8879304
0.40119231 -0.13753101 3.912385
3.0515239 -0.99190247 12.391248
3.5133932 -1.1292477 10.089862
3.7240396 -1.1891088 8.1469412
2.7504809 -0.87453955 4.7910638
3.6071897 -1.1442032 5.0857902
3.5468316 -1.1223452 4.1112247
5.1904106 -1.6255326 5.424685
5.504858 -1.7208605 4.7329087
4.9631314 -1.5505636 3.4936879
5.8412352 -1.8226737 3.2895763
4.3999486 -1.3720975 1.9504455
4.8182745 -1.5016346 1.5733944
5.164062 -1.6252072 4.9029431
4.6373916 -1.4576809 3.6231194
5.3152528 -1.6697457 3.3595374
4.3083582 -1.3501414 1.6605341
0.038565487 -0.023484275 3.6541343
3.7925425 -1.2664503 25.417847
3.4002233 -1.0987436 11.470679
3.8409965 -1.2308776 9.5616627
3.8202195 -1.2176294 7.4152541
3.3075609 -1.0504209 5.1695309
3.8884866 -1.2319475 4.9602251
0.21822062 -0.083958797 3.8829386
0.40049604 -0.13791697 3.9074132
3.5152955 -1.1345996 10.099248
3.6956356 -1.1850159 8.0884266
2.7545326 -0.87900513 4.7995954
3.5945046 -1.1443235 5.0698299
3.5846267 -1.137748 4.1553268
4.1768951 -1.3177229 4.3838344
5.4904056 -1.7279204 4.7234936
4.920258 -1.5475434 3.4662735
5.6182718 -1.7638664 3.1689985
4.4152403 -1.3853263 1.9579377
4.7836056 -1.4999945 1.5635242
5.1297479 -1.6222831 4.8730135
4.6471705 -1.4669958 3.6319487
5.3502088 -1.6879113 3.3823361
4.9923377 -1.5721408 2.5070305
4.284184 -1.3483161 1.6523166
0.038492817 -0.023686014 3.6591341
3.7843246 -1.2835591 25.403027
3.4118304 -1.1209387 11.527943
3.8349354 -1.2496334 9.5616627
3.8094513 -1.2354717 7.406476
3.1842053 -1.0296277 4.9876814
3.8482118 -1.2421373 4.9180131
0.21773344 -0.085214257 3.8829386
0.39919227 -0.14004439 3.902442
3.5181327 -1.1592927 10.127404
3.682121 -1.2055368 8.0749226
2.7489552 -0.89629495 4.7995954
3.4067204 -1.1081605 4.818459
3.6705101 -1.1918614 4.2619066
4.2489829 -1.3616968 4.4644389
4.8770657 -1.5592519 3.4416001
5.2126269 -1.6655422 2.9510314
4.6201501 -1.4753476 2.0478432
4.7850919 -1.527104 1.5663441
5.1132121 -1.6495084 4.8663626
4.7614946 -1.5342157 3.7261302
4.9178329 -1.5817627 2.4755595
4.2621417 -1.3708699 1.6473861
0.038443126 -0.023766581 3.6591341
3.7796478 -1.2900691 25.38821
3.4580569 -1.142819 11.69019
3.8494565 -1.261802 9.6030855
3.8188908 -1.2451664 7.428421
3.0676839 -0.99668062 4.8099647
3.9015744 -1.2646282 4.9870882
0.21739073 -0.085297629 3.8779471
0.39906991 -0.14039271 3.902442
3.5093317 -1.1584297 10.103941
3.7290649 -1.2230699 8.1784496
2.7610383 -0.90130138 4.8209252
3.2745373 -1.0664248 4.6349177
3.6318166 -1.1792967 4.2178044
4.2461214 -1.3705928 4.4644389
4.5785236 -1.4743738 3.9608486
4.886004 -1.5724554 3.4498246
5.0750437 -1.6303711 2.8768299
4.6178274 -1.4826031 2.0478432
4.7598486 -1.5272905 1.559294
5.118876 -1.656269 4.8730135
5.5835409 -1.8033996 4.3559661
5.0148096 -1.6187429 3.182215
4.9040446 -1.5801617 2.4692655
0.038359929 -0.023900628 3.6591341
3.7743869 -1.3030009 25.38327
3.4467673 -1.1531177 11.666331
3.8466601 -1.2765179 9.607688
3.8140814 -1.2598206 7.428421
2.9702814 -0.9776575 4.6653113
3.9208269 -1.2882844 5.0177879
0.21703152 -0.086207487 3.8779471
0.3979764 -0.14188357 3.8974702
3.5075169 -1.1748273 10.113326
2.7470179 -0.91053873 4.8038611
3.5013943 -1.1579103 4.9581094
3.4845638 -1.1496598 4.0560975
4.2413111 -1.3854063 4.4644389
4.5952921 -1.4983851 3.9796793
4.8444271 -1.5786924 3.4251513
5.0392599 -1.6402479 2.8605981
4.3828573 -1.4257492 1.9504455
5.1154408 -1.6788605 4.8763394
5.690846 -1.8655183 4.4442611
5.0199881 -1.6446352 3.1898146
4.8971033 -1.6015444 2.4692655
0.038242221 -0.024007097 3.6541343
3.7668815 -1.3151435 25.363514
3.4342375 -1.1622705 11.637698
3.8218079 -1.2830969 9.5570602
3.8096607 -1.2731266 7.428421
2.9641809 -0.98713058 4.6611786
3.8950148 -1.2948843 4.9909253
0.21672928 -0.086964548 3.8779471
0.39798 -0.14345317 3.902442
3.4788785 -1.178756 10.042934
2.7265139 -0.91431725 4.7739997
3.6116328 -1.2083703 5.1177106
3.496608 -1.1671835 4.0744734
4.1314812 -1.3655081 4.3557982
4.5641594 -1.5058794 3.95771
4.9421353 -1.6296391 3.4964294
4.9830141 -1.641199 2.8327725
4.2105212 -1.3859589 1.8792703
5.0812011 -1.6872929 4.8497348
5.7226644 -1.8980969 4.4736929
5.0837779 -1.6852072 3.2328784
4.8009996 -1.5886866 2.4252062
0.03815819 -0.02414044 3.6541343
3.7637331 -1.3288018 25.373394
3.3892047 -1.1602293 11.499311
3.7710593 -1.2807221 9.4419966
3.8119998 -1.2887183 7.4415884
2.9287162 -0.98668963 4.6115828
0.21642441 -0.087720543 3.8779471
0.39747685 -0.14484151 3.902442
3.4829049 -1.1936901 10.066399
3.7623456 -1.2814393 8.2819786
2.7134266 -0.92047739 4.7569356
3.5132043 -1.1890889 4.9860396
3.9807286 -1.3442539 4.6330981
3.835824 -1.2826555 4.0544076
4.5699515 -1.5254997 3.9671257
5.0712781 -1.6918739 3.5896394
5.3596916 -1.786025 3.0437834
4.232048 -1.4094369 1.8905085
5.1212921 -1.7204771 4.8929667
7.4059191 -2.4851391 5.7716265
5.0124712 -1.6810118 3.1923478
4.7954245 -1.6054356 2.4252062
4.769763 -1.595924 1.8396766
0.03803983 -0.024245966 3.6491344
3.7495589 -1.3385348 25.309183
3.3696184 -1.16668 11.446819
3.6797259 -1.2640442 9.2256784
2.8932912 -0.98601311 4.5619874
3.5976105 -1.2239661 4.6263623
0.21611689 -0.088475466 3.8779471
0.39746881 -0.14641283 3.9074132
3.8227472 -1.3251061 11.056572
3.7928393 -1.306619 8.3584986
2.685529 -0.92147839 4.7142768
3.3664923 -1.1525427 4.7865381
4.011302 -1.370196 4.6735249
3.7029517 -1.2526108 3.9212346
4.5645986 -1.5414424 3.9671257
5.0534554 -1.7055539 3.5814147
5.3576221 -1.8061382 3.0461023
4.3237538 -1.4567655 1.9317151
5.1329312 -1.7443504 4.9095941
7.4086819 -2.5148733 5.7804561
5.0310669 -1.7068081 3.2075469
4.8284793 -1.6352679 2.4440887
0.037954967 -0.024378601 3.6491344
3.7558262 -1.3555726 25.38327
3.3514371 -1.1735013 11.399099
3.505511 -1.2178904 8.8022461
4.7150679 -1.6308059 9.2103882
2.9270775 -1.0089458 4.6198487
3.578162 -1.2313017 4.6071749
0.21580674 -0.089229316 3.8779471
0.39745471 -0.14798588 3.912385
3.8848662 -1.3618498 11.248975
3.8458157 -1.3399067 8.4845324
2.6946154 -0.93512261 4.7356067
3.2229276 -1.1159735 4.5910273
4.0449462 -1.3974746 4.717627
3.6513183 -1.2493649 3.8721707
4.5518236 -1.55485 3.9608486
4.9722853 -1.6975148 3.5293269
4.2791495 -1.4583893 1.9148579
3.7391338 -1.285254 3.6026728
7.3233995 -2.5144668 5.7215924
5.0454659 -1.7313553 3.2202129
4.8184485 -1.6506414 2.4419906
4.3832288 -1.5006983 1.7016219
0.03786964 -0.024510941 3.6491344
3.7430427 -1.3657445 25.328939
3.5030818 -1.2307671 8.8068485
4.3069468 -1.5064938 8.4291315
2.9022801 -1.0117462 4.5867853
3.6010864 -1.2532663 4.6417127
0.21549395 -0.089982077 3.8779471
0.39743444 -0.1495606 3.9173565
3.9223773 -1.3903941 11.370987
3.8924451 -1.3714092 8.5970631
2.7110214 -0.95143253 4.7697339
3.1507585 -1.1033145 4.4952669
4.0400434 -1.4115857 4.717627
3.6671557 -1.2691008 3.8931983
4.557405 -1.5745425 3.9702637
4.8833284 -1.6862004 3.4717562
5.2736917 -1.8189425 3.0066826
4.2521195 -1.4657634 1.9054928
3.7804718 -1.3142369 3.6459041
5.7185149 -1.9857684 4.4913516
5.0434637 -1.7503701 3.2227459
4.8255224 -1.6719083 2.4482849
4.3779635 -1.5159895 1.7016219
0.037783846 -0.024642982 3.6491344
3.3693912 -1.2427216 22.829674
3.1197147 -1.1168638 10.640355
3.4232869 -1.2161707 8.618145
4.3671408 -1.5446804 8.5564146
3.0048881 -1.0592964 4.7521033
3.6087835 -1.2700853 4.6570625
0.21517853 -0.090733744 3.8779471
0.39690995 -0.15094699 3.9173565
3.8086615 -1.3650644 11.056572
3.9430027 -1.4047145 8.7185965
2.7199731 -0.96525145 4.7910638
3.1270053 -1.1072652 4.4673367
4.0414844 -1.4279382 4.724977
3.7098277 -1.2983873 3.9422617
4.9879465 -1.7418362 3.5485172
5.1794748 -1.8067008 2.9579878
4.2557316 -1.4836494 1.9092388
3.8181305 -1.3422858 3.6858103
5.7458715 -2.017771 4.5178404
5.1105385 -1.7936616 3.2683432
4.8196564 -1.6887424 2.4482849
4.3860154 -1.5359443 1.7065524
0.037731066 -0.024802715 3.6541343
3.3635767 -1.2539325 22.819796
3.1059718 -1.1241902 10.60695
3.4190207 -1.2281128 8.618145
4.3166208 -1.543784 8.4686327
3.0011721 -1.0697789 4.7521033
3.5982888 -1.2805253 4.6493878
0.21459538 -0.091370068 3.8729553
0.39687797 -0.15252326 3.922328
3.8022509 -1.3777629 11.05188
3.9257867 -1.4140431 8.6915894
2.7043133 -0.97033566 4.7697339
3.1032629 -1.1110634 4.4394064
4.0364752 -1.442037 4.724977
5.0802922 -1.7979789 5.3756213
5.0212641 -1.7731603 3.575932
5.1480718 -1.8159281 2.9440751
4.254899 -1.500037 1.9111118
3.8204577 -1.3581065 3.692461
5.6092877 -1.991828 4.4177728
5.1204967 -1.8172569 3.2784758
4.8137326 -1.7055559 2.4482849
4.4162378 -1.5638554 1.7197005
0.037644256 -0.024934271 3.6541343
3.3620875 -1.2667619 22.839554
3.0978234 -1.1334864 10.592634
3.4128766 -1.239373 8.6135426
4.2819257 -1.548255 8.4115744
3.5968132 -1.2941632 4.6532254
0.21453986 -0.092233755 3.8779471
0.39634317 -0.1539077 3.922328
3.8703346 -1.4177393 11.263054
3.9596918 -1.4418913 8.7771111
2.7009096 -0.97976953 4.7697339
3.1106987 -1.1259916 4.4553661
4.0314169 -1.4561181 4.724977
5.1344247 -1.83733 5.4387031
5.0465474 -1.8019258 3.5978637
4.2452703 -1.5133237 1.9092388
3.7981255 -1.3651196 3.6758335
5.4957824 -1.9731519 4.3353643
4.9193635 -1.7652326 3.1568832
4.8034773 -1.7208179 2.4461868
4.4552097 -1.5951797 1.7361356
0.037556991 -0.025065523 3.6541343
3.3598232 -1.2793196 22.85437
3.0910478 -1.143257 10.583091
3.4250352 -1.2573384 8.6549654
3.2976885 -1.201493 5.2273927
3.5982976 -1.3089018 4.6609001
0.21421659 -0.092982076 3.8779471
0.39629957 -0.15548547 3.9272995
3.8621252 -1.4300419 11.253668
4.0016217 -1.4730017 8.88064
3.10392 -1.1358078 4.4513764
4.1313982 -1.5085552 4.8462577
5.0709701 -1.8346151 5.3791256
5.4245553 -1.9593412 4.7329087
5.0402269 -1.8195307 3.5978637
4.7143884 -1.7000486 2.7098763
4.2443233 -1.529705 1.9111118
3.7582448 -1.3656173 3.6425788
4.7175736 -1.7123599 3.7379029
4.9172239 -1.7838638 3.1594164
4.8017082 -1.7391202 2.4482849
4.462935 -1.6155434 1.7410661
0.037469268 -0.025196467 3.6541343
3.3531618 -1.2902026 22.839554
3.0870385 -1.15404 10.583091
3.4206254 -1.2692864 8.6549654
4.064332 -1.5017391 8.0077791
3.3304427 -1.226613 5.2852535
3.5937068 -1.3214543 4.6609001
0.21389072 -0.093729265 3.8779471
0.3957544 -0.15686786 3.9272995
3.5500362 -1.3285823 10.362042
3.9944155 -1.4862019 8.8761387
3.0914576 -1.1434991 4.4394064
4.1324677 -1.5253152 4.8536081
4.1970763 -1.5350319 4.4714484
5.4323077 -1.9836047 4.7454624
4.9984927 -1.8242111 3.5731905
4.7084255 -1.7164944 2.7098763
4.2215347 -1.5381628 1.9036198
3.7920074 -1.3928894 3.6791592
4.7533078 -1.7441331 3.7702775
4.8866839 -1.7921115 3.1442175
4.8297038 -1.7683544 2.4650693
4.7632537 -1.7430868 1.8544682
0.037381086 -0.025327105 3.6541343
3.3479133 -1.3016179 22.834614
3.0843875 -1.1653363 10.587863
3.4454415 -1.2921965 8.7286062
4.0725279 -1.520945 8.0341148
3.233839 -1.2038677 5.1406007
3.6101031 -1.3418077 4.6877623
0.21356224 -0.094475314 3.8779471
0.39569908 -0.15844698 3.932271
3.5486054 -1.3421872 10.371428
4.0116167 -1.5085649 8.9256516
4.1493526 -1.5480262 4.879334
4.2151074 -1.5583299 4.4959798
5.4107447 -1.9971635 4.7329087
4.9528651 -1.8271754 3.5457759
4.7315011 -1.7436421 2.7261078
4.2291903 -1.5576961 1.9092388
3.783622 -1.4048178 3.6758335
5.5922999 -2.0741687 4.4266019
4.9329448 -1.8286375 3.1771488
4.8235016 -1.7852025 2.4650693
4.8900065 -1.8088517 1.9037735
0.037292454 -0.025457436 3.6541343
3.3433495 -1.3132963 22.834614
3.4007199 -1.2889808 8.6273499
4.194912 -1.5833613 8.2842913
3.07686 -1.15767 4.9008894
3.5903952 -1.3487651 4.6685753
0.21323115 -0.095220208 3.8779471
0.39563754 -0.16002765 3.9372425
3.5084364 -1.3410101 10.268188
4.0063262 -1.5225589 8.9256516
3.5343966 -1.3354712 5.0778103
4.1153741 -1.5517356 4.8462577
4.2530704 -1.5892624 4.5415392
5.4183273 -2.0214808 4.7454624
4.95821 -1.8488358 3.5540004
4.6963272 -1.7493234 2.7098763
4.2237272 -1.5724493 1.9092388
3.722764 -1.3970268 3.6226256
5.5131145 -2.0667186 4.3706822
4.9588251 -1.8579454 3.1974142
4.6812134 -1.7511433 2.3979316
4.7819304 -1.7878741 1.8659728
0.037203364 -0.025587456 3.6541343
3.3365784 -1.3240988 22.819796
3.3907268 -1.2987472 8.6135426
4.1938353 -1.5997019 8.2930698
2.9912615 -1.1373971 4.772768
3.5766752 -1.3578767 4.6570625
0.21289748 -0.09596394 3.8779471
0.39507657 -0.16140771 3.9372425
3.5520267 -1.3719027 10.40897
3.8648288 -1.4842409 8.6240702
5.197124 -1.9886674 9.1721773
3.5860131 -1.3692993 5.1576109
3.9515352 -1.5057322 4.6624994
4.2775226 -1.6154386 4.5730801
5.4112382 -2.0403819 4.7454624
4.9595518 -1.869081 3.5594831
4.7150674 -1.7750707 2.7237892
4.6564445 -1.7520783 2.0984151
3.6585157 -1.3875041 3.566092
5.4378295 -2.0601735 4.3177052
5.0490646 -1.9118816 3.2582104
4.6750722 -1.7674731 2.3979316
4.7712431 -1.8028858 1.8643292
0.037113819 -0.025717163 3.6541343
3.3340995 -1.3366051 22.834614
3.3807597 -1.3179457 11.647243
3.3825288 -1.3091646 8.6043377
4.3066649 -1.6599859 8.525691
3.0424352 -1.1690284 4.85956
3.5659289 -1.3680571 4.6493878
0.21229894 -0.096585825 3.8729553
0.39500323 -0.1629896 3.942214
3.5472162 -1.3842932 10.40897
3.6160874 -1.403212 8.0839252
4.9882522 -1.9287283 8.8181047
3.5615332 -1.3742151 5.1296806
3.914618 -1.507334 4.6257477
4.1918941 -1.5998408 4.4889712
5.3931713 -2.0551004 4.7360473
4.9608126 -1.8893584 3.5649662
4.6922817 -1.7852178 2.714514
4.6416335 -1.7650261 2.0946691
3.5874069 -1.3748778 3.5029078
5.5061011 -2.1080472 4.3765683
5.3282123 -2.0388794 3.4380662
4.6985521 -1.7951204 2.4126182
4.7737436 -1.822899 1.8676163
0.037023824 -0.025846558 3.6541343
3.3308539 -1.3488185 22.844492
3.3775277 -1.3302859 11.652015
3.377938 -1.3209639 8.6043377
3.0383358 -1.1796414 4.85956
3.5521662 -1.3770206 4.6378751
0.21196049 -0.097326301 3.8729553
0.39443189 -0.16436744 3.942214
3.5102546 -1.3840063 10.315115
3.8726134 -1.5183381 8.6645813
3.5314476 -1.3767877 5.0937705
4.1397004 -1.5964978 4.4399071
5.3859649 -2.0739133 4.7360473
4.950285 -1.9051614 3.5622246
4.6860213 -1.8015859 2.714514
4.7090101 -1.8094866 2.1265106
3.5825858 -1.3873918 3.5029078
5.4798608 -2.1199625 4.3618526
5.4296217 -2.0994425 3.5064619
4.6583853 -1.7984334 2.3958335
4.7365127 -1.8276515 1.8561116
0.036900803 -0.025946606 3.6491344
3.3275638 -1.3610256 22.85437
3.358994 -1.3365483 11.604295
3.4405344 -1.35931 8.7746305
3.8648424 -1.5207525 7.6785984
3.0080028 -1.179963 4.8182302
3.5383842 -1.3859044 4.6263623
0.21135807 -0.097943082 3.8679638
0.39385572 -0.16574325 3.942214
3.4797518 -1.3860331 10.24003
3.9077682 -1.5478816 8.7546053
4.4482484 -1.7557198 7.8923974
3.5602634 -1.4023587 5.1416507
3.4054894 -1.3386599 4.0450721
4.1208115 -1.605759 4.425889
5.451241 -2.1209283 4.7988162
4.9397073 -1.9209139 3.5594831
4.638412 -1.8018912 2.6913259
4.7026653 -1.8259131 2.1265106
3.609015 -1.4121338 3.5328372
5.4724274 -2.1390777 4.3618526
5.0448275 -1.9709241 3.2683432
4.7281871 -1.8443719 2.4335985
4.7125053 -1.8373123 1.8495376
0.036810007 -0.026075257 3.6491344
3.3235109 -1.3729295 22.85931
3.358463 -1.3499357 11.618611
3.640801 -1.4531527 9.2947159
3.8595104 -1.534234 7.6785984
3.0012498 -1.1894189 4.8140974
3.4947803 -1.382915 4.5764747
0.2110149 -0.098680258 3.8679638
0.39278445 -0.1669081 3.9372425
3.4284661 -1.3794891 10.103941
3.843729 -1.5380576 8.6240702
4.4517827 -1.7751004 7.9094615
3.4993522 -1.3924949 5.0618501
3.4165499 -1.3567955 4.063448
4.0952711 -1.6122948 4.4048619
5.472784 -2.151336 4.8239241
4.9018373 -1.9259121 3.5375514
4.6527119 -1.8261639 2.70292
4.6876316 -1.8389312 2.1227646
3.6040637 -1.424723 3.5328372
4.9416833 -1.9505368 3.2075469
4.789279 -1.8874907 2.4671674
4.6709146 -1.8399055 1.8363895
0.036718763 -0.026203588 3.6491344
3.3201325 -1.3851207 22.86919
3.3481984 -1.3594042 11.599523
3.8407967 -1.5423418 7.6522641
2.9918549 -1.1977961 4.8058314
3.4720745 -1.3879669 4.5534501
0.21066916 -0.099416241 3.8679638
0.39219943 -0.16827816 3.9372425
3.4316232 -1.3946973 10.127404
3.7454958 -1.5139364 8.4170151
4.4383025 -1.7877059 7.8966632
3.536407 -1.42156 5.1217003
3.3929143 -1.3611395 4.0413966
5.465241 -2.1704264 4.8239241
4.8989716 -1.944554 3.540293
4.8151422 -1.9093417 2.7979908
4.7027335 -1.8638235 2.1321299
3.6025357 -1.4386796 3.5361626
4.5826197 -1.8282439 3.6760964
5.3432722 -2.1306379 3.4659309
5.3898511 -2.1459498 2.7692869
4.6644635 -1.8561988 1.8363895
0.036627073 -0.026331602 3.6491344
3.3159933 -1.3970035 22.874128
3.3420517 -1.370517 11.594751
3.7915995 -1.5441195 9.70434
3.8487055 -1.5611409 7.6785984
2.992873 -1.2103424 4.8140974
3.4820688 -1.4060792 4.5726376
0.21006073 -0.10002577 3.862972
0.3911207 -0.16943377 3.932271
3.4251375 -1.4060119 10.122711
3.7260807 -1.5212413 8.3855066
4.4586082 -1.8139994 7.9435887
3.7268543 -1.5132519 5.4010019
3.4007106 -1.3780679 4.0560975
3.0812488 -1.2379795 3.3429842
5.4070573 -2.1692007 4.7799854
4.8921537 -1.9616426 3.540293
5.1045227 -2.0447392 2.9649444
4.7091098 -1.8853972 2.137749
3.5940292 -1.4498492 3.5328372
5.45576 -2.1975965 3.5419264
5.5339131 -2.2257185 2.8448167
4.6754813 -1.8795148 1.8429636
0.036534935 -0.026459293 3.6491344
3.3118112 -1.4088742 22.879066
3.3331103 -1.3804609 11.580435
3.7753456 -1.5528859 9.6767254
3.8543136 -1.579106 7.7005444
3.040731 -1.2420654 4.8967566
0.20971029 -0.1007584 3.862972
0.39052689 -0.170798 3.932271
3.4425259 -1.4272125 10.188411
3.7066598 -1.5284289 8.3539982
4.6211085 -1.8989439 8.2422047
3.777307 -1.5491198 5.480803
3.4021544 -1.3924985 4.063448
3.0901265 -1.2540921 3.3570025
5.3886304 -2.183676 4.7705703
4.7922626 -1.941033 3.4744978
5.4094381 -2.1888251 3.1411729
4.7282863 -1.9122523 2.1489871
3.5682001 -1.453932 3.5128841
4.5360513 -1.8464761 3.6496079
5.3642039 -2.1825101 3.4887297
5.395762 -2.1920664 2.7797771
4.6645169 -1.8940473 1.8413202
0.036442351 -0.026586663 3.6491344
3.3075874 -1.4207327 22.884007
3.3241398 -1.3903589 11.566119
3.7699022 -1.5660547 9.6767254
3.8576303 -1.5962135 7.7181001
3.0545859 -1.2601846 4.9256868
4.141942 -1.7062784 5.4399133
0.20935729 -0.10148981 3.862972
0.38992831 -0.17216016 3.932271
3.4964182 -1.463881 10.362042
3.7133598 -1.5463798 8.3810053
4.942049 -2.0510263 8.8223715
3.7412541 -1.5496113 5.4369125
3.4160707 -1.4121368 4.0854988
4.0921593 -1.6774325 4.425889
5.3053284 -2.1715093 4.7046628
4.6887059 -1.9181669 3.405961
5.4878764 -2.2428885 3.1898677
4.7258739 -1.9304985 2.1508601
4.2985473 -1.7690563 4.2212157
4.4921942 -1.8469282 3.6201761
5.2528844 -2.1586194 3.4228671
5.2747107 -2.1643698 2.7231297
4.6447697 -1.9049423 1.8363895
0.036349326 -0.026713708 3.6491344
3.3040335 -1.432888 22.893885
3.3178914 -1.401373 11.561347
3.7842295 -1.5875188 9.727354
3.0319858 -1.2632633 4.8967566
4.0412626 -1.6813264 5.3171134
0.20874299 -0.10209204 3.8579805
0.38932499 -0.17352022 3.932271
3.491287 -1.476077 10.362042
3.7300131 -1.5686162 8.4305182
5.0286665 -2.1075821 8.9887428
3.666326 -1.5335904 5.3371615
3.3923502 -1.416216 4.063448
4.1521797 -1.71899 4.4959798
5.3660607 -2.2182684 4.7642937
4.6897106 -1.9377153 3.4114439
5.4800138 -2.2620311 3.1898677
4.7405343 -1.9558239 2.1602252
4.3544064 -1.8098454 4.281075
4.4819875 -1.8610476 3.617233
5.1298532 -2.1290212 3.3494048
5.0407152 -2.0889409 2.6098349
4.8169641 -1.9952352 1.9037735
0.036255855 -0.026840428 3.6491344
3.2997231 -1.4447242 22.898823
3.2992492 -1.4070897 11.513628
3.782263 -1.6022426 9.736558
4.5348377 -1.9136332 9.0874929
3.0119948 -1.2672909 4.8719587
3.3438969 -1.4048966 4.4191375
0.20838533 -0.10282007 3.8579805
0.38871691 -0.17487815 3.932271
3.3988242 -1.4509869 10.103941
3.7525673 -1.5935398 8.493535
5.0212789 -2.1251225 8.9887428
3.6331928 -1.5346537 5.2972617
3.3686426 -1.4201467 4.0413966
3.0834053 -1.2891339 3.3640118
5.4804072 -2.2879708 4.8710008
4.6481876 -1.9395812 3.3867707
5.083653 -2.1192191 2.9695818
4.7379575 -1.9741427 2.1620984
4.3033061 -1.8062479 4.237843
4.4680085 -1.8735552 3.6113467
5.1263666 -2.148581 3.351938
4.9329133 -2.0644715 2.5594816
4.8099704 -2.0120373 1.9037735
0.036161944 -0.026966821 3.6491344
3.2960815 -1.4568619 22.908703
3.3093979 -1.4250923 11.566119
3.7856283 -1.6192774 9.7595711
4.6625319 -1.9867226 9.3552275
2.9557543 -1.2557884 4.7892995
3.3271697 -1.411553 4.4037871
0.20802517 -0.10354684 3.8579805
0.38858926 -0.17645486 3.9372425
3.3937387 -1.4628421 10.103941
3.7509835 -1.608345 8.5025377
4.9514771 -2.1159897 8.8778286
3.5668373 -1.521318 5.2094812
3.3979769 -1.4465038 4.0818233
3.0821719 -1.3012762 3.3675163
5.5010805 -2.3191838 4.8961086
4.6336827 -1.9525472 3.3812878
4.835341 -2.0355449 2.8327725
4.7438569 -1.9960631 2.1677175
4.4465532 -1.8828357 3.5995741
4.9679799 -2.1026144 3.2556772
4.9423985 -2.0887451 2.567874
0.036067594 -0.027092885 3.6491344
3.2916858 -1.4686753 22.913643
3.3044033 -1.4366356 11.566119
3.7691913 -1.6278338 9.7319555
4.7017684 -2.0228636 9.4473972
2.8918729 -1.2405806 4.694242
3.310437 -1.4181098 4.3884373
0.20740502 -0.10414169 3.8529887
0.38797095 -0.17781021 3.9372425
3.3759534 -1.4691703 10.066399
3.7313616 -1.615374 8.4710283
4.9320874 -2.1280942 8.8564987
3.55597 -1.5313753 5.2015009
3.9659953 -1.7046928 4.7580538
4.379993 -1.8672715 4.758821
5.3890934 -2.2941585 4.8050933
4.9269509 -2.0964093 3.5951221
5.027967 -2.1373279 2.946394
4.7368608 -2.0126102 2.1677175
5.1624746 -2.2093956 5.0825205
4.4325204 -1.8951674 3.5936878
5.0200701 -2.1453543 3.2936749
4.9350777 -2.1059844 2.567874
0.0359728 -0.027218619 3.6491344
3.2872474 -1.4804755 22.918581
3.2925344 -1.4451615 11.542259
3.7849758 -1.6503516 9.7871857
4.6529412 -2.0211329 9.3640051
2.8875248 -1.2506676 4.694242
3.317234 -1.4347465 4.4037871
0.20704022 -0.10486503 3.8529887
0.38783145 -0.17938764 3.942214
3.3660645 -1.478863 10.05232
3.7177217 -1.6249015 8.4530239
4.9174566 -2.1421728 8.8437014
3.5229697 -1.5317634 5.1616006
4.0159998 -1.7428201 4.8242068
4.2817297 -1.8430679 4.6606936
5.4847555 -2.3575318 4.8961086
4.9196033 -2.1135948 3.5951221
5.0204759 -2.1548657 2.946394
4.7298064 -2.0291324 2.1677175
5.1650128 -2.2318459 5.0924969
4.4184561 -1.9074242 3.5878015
4.9571381 -2.1389539 3.2582104
4.9235282 -2.1214025 2.5657759
4.745266 -2.0436175 1.8873384
0.035877571 -0.027344024 3.6491344
3.2827668 -1.4922626 22.923519
3.2983875 -1.461484 11.580435
3.798861 -1.6722122 9.8378143
2.8728285 -1.2562293 4.6777105
3.379766 -1.4758192 4.4920502
0.20667292 -0.1055871 3.8529887
0.38720292 -0.18074034 3.942214
3.3435299 -1.4829072 10.000699
3.702069 -1.6334748 8.4305182
2.7183702 -1.1954638 4.9275737
3.5176013 -1.5440516 5.1616006
3.9508927 -1.7309786 4.7543783
4.5630932 -1.9830921 4.9690938
5.4764929 -2.3766627 4.8961086
4.8584909 -2.1074588 3.5567417
4.760921 -2.0631695 2.8026283
4.7269483 -2.0474727 2.1695905
5.5644412 -2.427531 5.4882312
4.4043603 -1.9196057 3.5819151
4.997066 -2.1769047 3.2886086
4.9077692 -2.1349549 2.5615797
4.6991286 -2.0432224 1.8725468
0.035781901 -0.027469093 3.6491344
3.2789502 -1.5043608 22.933399
3.3014414 -1.4766455 11.609067
3.8554866 -1.7132308 9.9989023
3.6050527 -1.5959413 7.2923598
2.8452568 -1.2560213 4.6405139
3.3833921 -1.4914865 4.5035625
0.20630309 -0.10630789 3.8529887
0.38705167 -0.18231848 3.9471855
3.3147082 -1.4839913 9.9303083
3.68839 -1.6428443 8.4125137
2.711797 -1.2038871 4.9233074
3.4130144 -1.5123724 5.0179601
4.6933041 -2.0591888 5.1162848
5.4432068 -2.3848305 4.8741393
4.9085584 -2.1495659 3.5978637
4.8876166 -2.13837 2.8791485
5.5832701 -2.4589791 5.5148349
4.3939333 -1.9333404 3.5789721
5.0091677 -2.203012 3.3012745
4.9002872 -2.1520731 2.5615797
4.68332 -2.0558169 1.8692598
0.035717025 -0.027624305 3.6541343
3.2743843 -1.5161239 22.938339
3.9386089 -1.7666587 10.229029
3.5994599 -1.6085156 7.2923598
2.8357146 -1.2636545 4.6322474
3.3723085 -1.5006813 4.4958873
0.20567517 -0.10689312 3.8479972
0.38641292 -0.18366842 3.9471855
3.3110805 -1.4962634 9.9350004
3.6826332 -1.6557093 8.4125137
2.6980581 -1.2090793 4.9062438
3.3224459 -1.4861342 4.894269
3.7994092 -1.6963221 4.5889959
4.7317376 -2.0957787 5.1653481
5.4597673 -2.4148376 4.8961086
4.9048495 -2.1683774 3.6006052
4.7585583 -2.1017258 2.8095849
5.5610056 -2.4723861 5.5015335
4.3871579 -1.9486662 3.5789721
4.8512549 -2.1507707 2.5405991
0.035620376 -0.027748814 3.6541343
3.2711835 -1.5285312 22.953156
3.9555542 -1.7908719 10.288861
3.5872736 -1.6181157 7.279192
2.8338525 -1.2746997 4.6363807
3.334888 -1.4979964 4.4536748
0.20530079 -0.10761041 3.8479972
0.38576943 -0.18501614 3.9471855
3.3278179 -1.5178386 10.000699
3.6907074 -1.6748513 8.4440212
2.6938212 -1.2184899 4.9062438
3.2650588 -1.4741627 4.818459
3.8583713 -1.738826 4.6661744
4.7602053 -2.1282949 5.2038984
4.7511926 -2.1183236 2.8095849
5.5898123 -2.5085988 5.5381136
4.3729525 -1.9606611 3.5730855
4.6553574 -2.0863125 3.0834212
4.889286 -2.1880848 2.5636778
0.035523299 -0.027872983 3.6541343
3.2672336 -1.5406033 22.963034
3.8568799 -1.7624428 10.04953
3.5859628 -1.6326127 7.2879705
2.8396349 -1.2892375 4.6529126
3.3296387 -1.5096283 4.4536748
0.20492391 -0.10832639 3.8479972
0.38560084 -0.18659426 3.952157
3.3569853 -1.5453218 10.103941
3.6828594 -1.6868176 8.4395199
2.6942968 -1.2300521 4.9147758
3.2900543 -1.4992963 4.862349
3.8090758 -1.7326316 4.6147227
4.7332435 -2.1360962 5.1828709
5.1517916 -2.3217552 4.6387548
4.5960317 -2.0703275 3.3895123
4.7195315 -2.1239872 2.7956719
5.5674171 -2.5219331 5.5248117
4.3660817 -1.9759135 3.5730855
4.6755395 -2.1149869 3.1011534
4.951932 -2.236901 2.5993445
0.03542579 -0.027996814 3.6541343
3.2583284 -1.5503293 22.938339
3.737165 -1.7235286 9.7549686
2.8606994 -1.310865 4.694242
0.20429036 -0.10890413 3.8430054
0.38494715 -0.18793912 3.952157
3.3547008 -1.5584848 10.113326
3.6670687 -1.6950955 8.4170151
2.6994612 -1.2438153 4.9318395
3.3422894 -1.5372134 4.9461393
5.1790857 -2.3558404 4.6701398
4.5887771 -2.0863578 3.3895123
4.7604876 -2.1624336 2.8234975
4.0950365 -1.8722159 4.0915213
4.3922477 -2.0062566 3.5995741
4.6249928 -2.1116002 3.0732882
5.1340528 -2.3407824 2.6958549
0.035327848 -0.028120302 3.6541343
3.5750947 -1.7164109 25.210396
3.7824903 -1.7604711 9.8884411
3.6918044 -1.7120188 7.524981
2.8356736 -1.3113928 4.6611786
0.20390896 -0.10961658 3.8430054
0.38428876 -0.1892817 3.952157
3.3539274 -1.572383 10.127404
2.6856437 -1.2488317 4.9147758
3.3314369 -1.5463334 4.9381595
3.3570163 -1.5553735 4.0891738
3.3281572 -1.5300266 3.6794207
5.1991296 -2.3868966 4.6952472
4.6156697 -2.1180587 3.4141855
4.7649903 -2.184576 2.8304539
4.1393299 -1.9099641 4.1414037
4.4402785 -2.0469594 3.6437213
4.6254239 -2.1313398 3.0783546
0.035229474 -0.028243449 3.6541343
3.572578 -1.7305738 25.235092
3.786932 -1.7786475 9.9160566
0.2035251 -0.11032768 3.8430054
0.38410285 -0.19085966 3.9571285
3.343739 -1.5818669 10.113326
4.0372467 -1.9005396 9.2902508
2.6812682 -1.2581987 4.9147758
3.2850883 -1.5387796 4.8783092
3.2901461 -1.5383631 4.0156708
3.2483909 -1.5071127 3.5988164
5.2225509 -2.4197574 4.7234936
4.6651621 -2.1605158 3.4553072
4.7693968 -2.2067761 2.8374102
4.1224833 -1.919673 4.1314268
4.4624248 -2.0760868 3.6672666
4.7430382 -2.2056398 3.1594164
0.035130668 -0.028366249 3.6541343
3.576288 -1.747811 25.304241
3.778935 -1.7910187 9.9114542
3.7750499 -1.7827522 7.7181001
0.20288603 -0.11089789 3.8380139
0.3834343 -0.19219926 3.9571285
3.3272951 -1.5883247 10.080476
4.0836792 -1.9398415 9.4117823
2.6485744 -1.2541559 4.863584
3.328733 -1.5734167 4.9501295
3.2970202 -1.5556252 4.0303712
3.2527997 -1.5229794 3.6093299
5.2140722 -2.4379728 4.7234936
4.7788124 -2.2334418 3.5430343
4.7696919 -2.2271595 2.8420477
5.6668329 -2.6629405 5.6578317
4.4990563 -2.1122646 3.7025845
4.7665296 -2.2368336 3.1796818
0.035031438 -0.028488705 3.6541343
3.567378 -1.7589093 25.284487
3.77266 -1.8041987 9.9114542
3.7234011 -1.774282 7.6259298
3.4012668 -1.6164215 5.6034908
4.4813128 -2.1268628 6.0155392
0.20249769 -0.11160542 3.8380139
0.38276109 -0.19353652 3.9571285
3.3652625 -1.6208986 10.211874
4.0768828 -1.9540845 9.4117823
2.6300616 -1.256647 4.8379889
3.3022792 -1.5602239 3.6689072
5.1984901 -2.4528365 4.7172165
4.7747688 -2.251893 3.5457759
4.8660765 -2.2928889 2.9023366
5.6575031 -2.6827052 5.6578317
4.5172253 -2.1400704 3.723187
4.7002525 -2.2257836 3.1416843
0.034931783 -0.028610813 3.6541343
3.5653906 -1.7734277 25.314121
3.8015294 -1.8343381 10.003505
3.7258184 -1.7914196 7.6434855
3.4082909 -1.6343683 5.6241555
4.7340364 -2.2670915 6.3609147
0.20210688 -0.11231159 3.8380139
0.38208318 -0.19487144 3.9571285
3.361136 -1.6333901 10.216567
4.0700369 -1.9683034 9.4117823
2.6115634 -1.2590241 4.8123932
3.7086527 -1.7847855 5.524693
3.8361268 -1.8428515 4.6919007
3.4287968 -1.6346662 3.8125935
5.182868 -2.4676213 4.7109399
4.7593279 -2.2649527 3.540293
4.8220372 -2.2927408 2.8814673
5.6413679 -2.699214 5.6511807
4.546195 -2.1732585 3.7526183
4.6535587 -2.2235913 3.1163523
0.034831699 -0.028732575 3.6541343
3.5570953 -1.7848169 25.299303
3.8249643 -1.8621351 10.081747
3.7454004 -1.816959 7.6961551
4.894556 -2.3681545 8.0584621
4.8617344 -2.3491447 6.5412769
0.20146237 -0.11287418 3.8330221
0.38140061 -0.19620396 3.9571285
3.3786554 -1.6565086 10.286959
4.0631413 -1.9824986 9.4117823
2.6118433 -1.2704141 4.8209252
3.669873 -1.7819259 5.4768128
3.8510253 -1.8665819 4.717627
3.503413 -1.6852745 3.900207
5.1672058 -2.4823267 4.7046628
4.6797748 -2.2471614 3.4882052
4.7341261 -2.2712362 2.8350914
4.0347548 -1.9478253 4.071568
4.5604248 -2.1996508 3.7702775
4.6807156 -2.256671 3.1391509
0.034761332 -0.028885536 3.6591341
3.5501502 -1.7968717 25.294365
3.8254552 -1.8789208 10.100158
3.7368839 -1.8289689 7.6917658
4.9697104 -2.4259629 8.19485
4.9572244 -2.416666 6.6794276
0.20106715 -0.11357673 3.8330221
0.38118631 -0.19778007 3.9621
3.3914142 -1.6774739 10.343272
4.007369 -1.9726328 9.2992525
3.5689211 -1.7483276 5.3371615
3.8414407 -1.8785236 4.7139516
3.4173009 -1.6585637 3.8125935
5.1585093 -2.5003486 4.7046628
4.6831913 -2.2689526 3.4964294
4.6783223 -2.2645864 2.807266
4.0279312 -1.9618975 4.071568
4.5418153 -2.2102499 3.7614481
4.6844397 -2.2786531 3.1467507
0.034660287 -0.029006699 3.6591341
3.5424719 -1.8085462 25.284487
3.8591349 -1.9122138 10.206016
3.7369192 -1.8451831 7.7049336
5.0091763 -2.466918 8.2733755
3.0821211 -1.5158604 4.1888871
0.20041923 -0.11413395 3.8280306
0.38049361 -0.19910945 3.9621
3.3978906 -1.6954662 10.380814
4.0063081 -1.989514 9.3127565
3.4520414 -1.7060362 5.1735706
3.8439808 -1.8964212 4.724977
3.8919208 -1.9057385 4.3382754
4.6752424 -2.2852862 3.4964294
4.6067019 -2.2497995 2.7701652
4.0009522 -1.9660652 4.0516152
4.5377007 -2.2278719 3.7643909
4.5951896 -2.2551081 3.0935538
0.034558825 -0.02912751 3.6591341
3.5347559 -1.8201892 25.274607
2.9030068 -1.4598962 10.435159
3.8471942 -1.9230524 10.192207
3.7325995 -1.8592842 7.7093225
5.0937791 -2.5307159 8.4262943
3.0423565 -1.509514 4.142837
0.20001961 -0.11483285 3.8280306
0.38026747 -0.20068569 3.9670715
3.4351106 -1.7290422 10.512211
3.2734785 -1.6320273 4.9182096
3.8221629 -1.9022748 4.7066016
3.8948369 -1.9240508 4.3487887
5.071116 -2.501858 4.6418934
4.5948472 -2.2639084 2.7678463
3.9974105 -1.9816778 4.0549407
4.5624948 -2.2598443 3.7908795
4.5602465 -2.2577455 3.0758214
0.034427136 -0.029216101 3.6541343
3.5270016 -1.8318005 25.264729
2.8978932 -1.4700207 10.435159
3.817781 -1.9250346 10.132376
3.7303665 -1.8744527 7.7181001
5.0748515 -2.5434375 8.4097624
2.9338844 -1.4684762 4.0046868
0.1993683 -0.11538465 3.8230388
0.37956464 -0.20201185 3.9670715
3.4028966 -1.7277405 10.432434
3.1665735 -1.6001385 7.3997402
4.8135004 -2.4250667 8.8863602
2.9366512 -1.4769125 4.4274364
3.8730643 -1.9445069 4.7764297
3.8497946 -1.9185463 4.3067346
5.0553827 -2.5160754 4.6356168
4.7003551 -2.338357 3.5265856
4.6622853 -2.3173962 2.8119035
4.0038266 -2.0022995 4.0682425
4.5328841 -2.2649164 3.7732208
4.5060592 -2.2505357 3.0454233
0.03432494 -0.029336095 3.6541343
3.5185213 -1.8430191 25.249912
2.8900864 -1.4787673 10.425615
3.8284514 -1.9472066 10.178401
3.7173922 -1.8842142 7.7049336
5.0609202 -2.5585973 8.4014969
2.9287405 -1.4787084 4.0046868
0.19896431 -0.11607986 3.8230388
0.37932658 -0.2035881 3.9720428
3.3937733 -1.7380351 10.423049
3.1532109 -1.6072277 7.3817358
4.7561812 -2.4170413 8.7967758
2.9798479 -1.5116938 4.4992566
3.8692775 -1.9595464 4.7801046
3.8143978 -1.9175563 4.2751937
4.9978704 -2.5092564 4.5916781
4.680953 -2.3491235 3.5183611
4.6620874 -2.3376276 2.8165412
4.0034795 -2.0196266 4.0748935
4.4744186 -2.255255 3.7320163
4.4519787 -2.242976 3.0150251
0.034222327 -0.029455733 3.6541343
