# .PCD v0.7 - Point Cloud Data file format
VERSION 0.7
FIELDS x y z
SIZE 4 4 4
TYPE F F F
COUNT 1 1 1
WIDTH 1487
HEIGHT 1
VIEWPOINT 0 0 0 1 0 0 0
POINTS 1487
DATA ascii
-0.67325735 -2.0916374 13.968646
-0.90962631 -2.8717146 14.505818
-0.75220007 -2.4155295 8.1350632
-1.0492715 -3.398411 8.4386463
-1.3759238 -4.4783611 8.6529741
-1.7257395 -5.6378298 8.7321329
-1.4016368 -4.587605 5.8198266
-0.1799583 -0.4788349 8.6849136
-0.47431952 -1.4205922 13.924994
-0.63129628 -2.0015881 8.1180353
-0.93311858 -2.9926434 8.5787916
-0.86865211 -2.8047504 6.1348991
-1.5545462 -5.0408611 8.6986589
-1.3208957 -4.293849 6.0234461
-0.99062306 -3.2627311 3.4305978
-1.132012 -3.7353878 3.229588
-1.4211373 -4.692338 3.2990439
-1.4227699 -4.70362 2.6588626
-1.3524296 -4.4738812 1.9766681
-1.2847298 -4.252593 1.3957303
-1.2245669 -4.0585485 0.89632326
-1.1795355 -3.9092941 0.4595336
-1.0242932 -3.3567386 3.206938
-1.2686793 -4.1627669 3.2522812
-1.4424288 -4.7358012 2.9947598
-1.3771851 -4.5300789 2.2762444
-1.3179839 -4.3380494 1.6671082
-1.2512268 -4.120894 1.1294264
-1.2013116 -3.9564917 0.66891581
-1.1502967 -3.7908385 0.25347942
-0.080056541 -0.11280549 14.353726
-0.68079519 -2.0900133 13.973584
-0.91964489 -2.8685219 14.505818
-0.76017839 -2.4114654 8.130291
-0.85127622 -2.7234485 6.7817378
-1.3908362 -4.4712439 8.6485853
-1.7445759 -5.6290841 8.7279997
-1.4166946 -4.5796223 5.815989
-0.18162864 -0.4782038 8.6849136
-0.47927541 -1.4189279 13.924994
-0.63827926 -1.9993722 8.1180353
-0.9430396 -2.9877219 8.5740986
-0.87518036 -2.7913151 6.1123929
-1.5713555 -5.0329146 8.6943932
-1.335876 -4.2892118 6.0234461
-0.99411708 -3.1997733 3.7106321
-0.98209363 -3.1944869 3.3640118
-1.1439021 -3.7276924 3.2264495
-1.4399601 -4.6953444 3.3045268
-1.418422 -4.6308556 2.6217618
-1.3463265 -4.3982062 1.9466994
-1.2686932 -4.1471643 1.3647096
-1.2171959 -3.9837818 0.88233399
-1.1713468 -3.8337138 0.45282736
-1.034902 -3.349575 3.2036126
-1.2832023 -4.1583128 3.2522812
-1.4284607 -4.6318727 2.9339635
-1.3689548 -4.447166 2.2384796
-1.3081254 -4.2521811 1.637525
-1.2413207 -4.037519 1.109497
-1.194741 -3.8860064 0.65924627
-1.1429794 -3.7199419 0.25065798
-0.080476508 -0.11255988 14.358727
-0.68808651 -2.0876243 13.973584
-0.92965227 -2.8652942 14.505818
-0.76859128 -2.4087973 8.130291
-1.0888855 -3.4412937 8.5629148
-1.4064354 -4.4663615 8.6485853
-1.7633718 -5.6202745 8.7238665
-1.4317138 -4.5715904 5.8121514
-0.18329678 -0.4775669 8.6849136
-0.48422548 -1.4172463 13.924994
-0.64525449 -1.9971321 8.1180353
-0.95188725 -2.9794805 8.5600204
-1.2511022 -3.9419014 8.6150684
-1.588914 -5.0273995 8.6943932
-1.351746 -4.287396 6.0274363
-1.0032458 -3.1898158 3.7032814
-0.99005872 -3.1808238 3.3534982
-1.1557523 -3.7199597 3.2233109
-1.4476612 -4.6623354 3.2853365
-1.4057109 -4.5327945 2.5707481
-1.3369676 -4.3137746 1.912985
-1.2561947 -4.0556474 1.3379189
-1.2078661 -3.9044235 0.86741209
-1.1641167 -3.7629962 0.44656828
-1.0465878 -3.3459423 3.2036126
-1.2965043 -4.14995 3.2493379
-1.4214939 -4.5527897 2.8883662
-1.3520604 -4.3383689 2.1881263
-1.299088 -4.1709437 1.6095854
-1.2308483 -3.9542646 1.0895675
-1.1891652 -3.8203449 0.65026748
-1.1366655 -3.6539137 0.24803808
-0.080922544 -0.11234713 14.368726
-0.69536954 -2.0852096 13.973584
-0.93964839 -2.8620317 14.505818
-0.77699488 -2.4060996 8.130291
-1.1020832 -3.4411929 8.5721197
-1.4212898 -4.4591427 8.6441965
-1.7829794 -5.6140852 8.7238665
-1.444757 -4.5573983 5.8006392
-0.18506759 -0.47719309 8.6899061
-0.48899543 -1.4150437 13.920022
-0.65222186 -1.9948676 8.1180353
-0.96068895 -2.9712141 8.5459423
-1.2661859 -3.9416552 8.6240702
-1.6056584 -5.0193381 8.6901274
-1.3667035 -4.2826519 6.0274363
-1.0082035 -3.1669121 3.6812308
-1.0011559 -3.1773486 3.3534982
-1.1687303 -3.7159028 3.2233109
-1.4413569 -4.5854521 3.2359903
-1.3949866 -4.4433312 2.5243723
-1.3284234 -4.2338853 1.8811433
-1.2588612 -4.0146189 1.3266387
-1.1979972 -3.8251798 0.85249019
-1.1578959 -3.6971295 0.44075626
-1.057134 -3.3387094 3.2002873
-1.3109825 -4.1453996 3.2493379
-1.4360784 -4.5436902 2.885833
-1.3535409 -4.2903414 2.167146
-1.2894996 -4.0898223 1.5816457
-1.2154276 -3.8572261 1.0661212
-1.1831456 -3.7547696 0.64128858
-1.1284041 -3.5832107 0.24521665
-0.081314221 -0.11206397 14.368726
-0.7023955 -2.0820334 13.968646
-0.949633 -2.8587344 14.505818
-0.78538907 -2.4033728 8.130291
-1.1158956 -3.4428999 8.585927
-1.4361113 -4.4518757 8.6398067
-1.8025653 -5.6078272 8.7238665
-1.4616358 -4.5553799 5.8044767
-0.18673219 -0.4765442 8.6899061
-0.49393186 -1.4133282 13.920022
-0.6591813 -1.9925787 8.1180353
-0.96890765 -2.961282 8.5271711
-1.2799371 -3.9372115 8.6240702
-1.6231694 -5.0137024 8.6901274
-1.3825706 -4.2807226 6.0314264
-1.0182122 -3.1601465 3.6775556
-1.0122408 -3.1738346 3.3534982
-1.181694 -3.7118003 3.2233109
-1.445944 -4.5445313 3.2113171
-1.3823137 -4.3497787 2.4756775
-1.3165313 -4.1452718 1.8455557
-1.251098 -3.9416165 1.3054882
-1.1816523 -3.7273231 0.83383775
-1.1497247 -3.6266053 0.43449715
-1.0676422 -3.3314431 3.1969616
-1.3328383 -4.1638956 3.2669969
-1.4230332 -4.4483223 2.8301034
-1.3422769 -4.203445 2.1272829
-1.2807966 -4.0133176 1.5553495
-1.2155915 -3.8112826 1.0555704
-1.1781878 -3.6940022 0.63300043
-1.1196632 -3.5126104 0.24239522
-0.081731953 -0.11181369 14.373726
-0.70965886 -2.0795689 13.968646
-0.95960611 -2.855402 14.505818
-0.79377359 -2.4006166 8.130291
-1.127298 -3.4371281 8.5813255
-1.4508992 -4.4445586 8.6354179
-1.8221294 -5.601501 8.7238665
-1.4686186 -4.5228128 5.7699389
-0.1883945 -0.47588947 8.6899061
-0.49868453 -1.4110928 13.915051
-0.66613269 -1.9902656 8.1180353
-0.97761142 -2.9529674 8.513093
-1.2957138 -3.9389238 8.6375742
-1.6406606 -5.0080061 8.6901274
-1.3984408 -4.2787342 6.0354161
-1.029237 -3.1565731 3.6775556
-1.0255042 -3.1770692 3.360507
-1.1946434 -3.7076528 3.2233109
-1.4400094 -4.4717946 3.164712
-1.3676486 -4.252152 2.424664
-1.3068748 -4.0656214 1.813714
-1.2472423 -3.8824193 1.2885678
-1.1856509 -3.6951118 0.82824206
-1.1395541 -3.5514424 0.42779097
-1.0781126 -3.3241444 3.1936362
-1.3486106 -4.1630635 3.2699401
-1.4106679 -4.3572021 2.7769065
-1.3318191 -4.1209993 2.0895181
-1.2715757 -3.9369252 1.5290533
-1.2109703 -3.751509 1.0415025
-1.1728203 -3.6333156 0.62471229
-1.1089096 -3.4373608 0.23937225
-0.08209458 -0.11149357 14.368726
-0.71691358 -2.0770791 13.968646
-0.96923965 -2.8510709 14.500923
-0.80167478 -2.3964157 8.1255188
-1.1399041 -3.4350257 8.585927
-1.4664048 -4.439467 8.6354179
-1.8416712 -5.5951061 8.7238665
-1.4823961 -4.511569 5.7622638
-0.19005451 -0.47522897 8.6899061
-0.50360709 -1.4093435 13.915051
-0.67267269 -1.9867377 8.1131964
-0.98572057 -2.9429915 8.4943218
-1.3080803 -3.9302459 8.6285715
-1.6581318 -5.0022488 8.6901274
-1.4133677 -4.2738266 6.0354161
-1.039187 -3.1497414 3.6738801
-1.0376955 -3.1768603 3.3640118
-1.2087849 -3.7071609 3.2264495
-1.4219242 -4.3633733 3.0934339
-1.3578032 -4.1715312 2.3829255
-1.2852057 -3.9508221 1.7668883
-1.2400225 -3.8141737 1.2688273
-1.1818533 -3.6395571 0.81798321
-1.1304109 -3.4811316 0.42153186
-1.0885452 -3.316813 3.1903105
-1.3744662 -4.1928983 3.2964287
-1.3949999 -4.2580304 2.7186432
-1.3179805 -4.0300512 2.0475569
-1.2633046 -3.8651354 1.5044008
-1.2059469 -3.6918144 1.0274347
-1.1655061 -3.5680044 0.61573344
-1.1007454 -3.3717287 0.23675236
-0.082455985 -0.11117227 14.363726
-0.7241596 -2.074564 13.968646
-0.97918582 -2.8476701 14.500923
-0.81003493 -2.3936026 8.1255188
-1.1525097 -3.4328783 8.5905294
-1.4818925 -4.4343209 8.6354179
-1.8611904 -5.5886436 8.7238665
-1.4920683 -4.4881177 5.7392387
-0.19182087 -0.47483009 8.6948977
-0.50852358 -1.407577 13.915051
-0.67960364 -1.9843775 8.1131964
-0.99377215 -2.9329951 8.4755497
-1.3217913 -3.9256556 8.6285715
-1.6747534 -4.9939575 8.6858616
-1.4282776 -4.268867 6.0354161
-1.0501753 -3.146095 3.6738801
-1.0510168 -3.1799908 3.3710206
-1.2217181 -3.7029188 3.2264495
-1.4070288 -4.2670484 3.0303802
-1.3501838 -4.0994468 2.3458247
-1.2844939 -3.902277 1.748158
-1.2338408 -3.7505834 1.2504969
-1.1807494 -3.5934086 0.80958962
-1.1192367 -3.4061983 0.41482568
-1.1001163 -3.3129933 3.1903105
-1.3954561 -4.2072573 3.3111444
-1.3637365 -4.1140122 2.6325152
-1.2992465 -3.9263258 1.9993017
-1.2545477 -3.7934515 1.4797481
-1.2005216 -3.6322017 1.0133668
-1.1624129 -3.5168958 0.60882664
-1.092137 -3.3061965 0.23413245
-0.082816131 -0.11084982 14.358727
-0.73113805 -2.0712907 13.963707
-0.98912007 -2.8442349 14.500923
-0.8183853 -2.3907607 8.1255188
-1.1644856 -3.4288342 8.5905294
-1.497362 -4.4291215 8.6354179
-1.8797885 -5.5794458 8.7197342
-1.4903548 -4.4312358 5.6740012
-0.19336759 -0.47389054 8.6899061
-0.51343381 -1.4057933 13.915051
-0.68611479 -1.9808055 8.1083565
-0.99840879 -2.9131842 8.4286232
-1.3347844 -3.9189568 8.6240702
-1.6921755 -4.988081 8.6858616
-1.4393057 -4.2524385 6.0194559
-1.0622356 -3.145622 3.6775556
-1.0632416 -3.1796849 3.3745253
-1.2334037 -3.6949396 3.2233109
-1.3901551 -4.1669145 2.9645848
-1.3392769 -4.0190616 2.3040862
-1.2790644 -3.8405905 1.7238085
-1.2272305 -3.6870835 1.2321664
-1.1715894 -3.5240059 0.79653299
-1.1059822 -3.3266599 0.40767241
-1.1104852 -3.3055937 3.1869853
-1.3895595 -4.1410484 3.2640538
-1.3767183 -4.1051407 2.6299822
-1.2942131 -3.865818 1.9720269
-1.2453061 -3.7218771 1.4550955
-1.1931536 -3.5680628 0.9981268
-1.1542655 -3.4517629 0.59984779
-1.084668 -3.2455039 0.23171408
-0.083202571 -0.11056006 14.358727
-0.73836374 -2.0687261 13.963707
-0.99904221 -2.840765 14.500923
-0.82672554 -2.3878891 8.1255188
-1.1764473 -3.4247484 8.5905294
-1.5128136 -4.4238677 8.6354179
-1.899253 -5.5728502 8.7197342
-1.4903275 -4.3804903 5.6164384
-0.19502059 -0.47321269 8.6899061
-0.51833779 -1.4039925 13.915051
-0.69302487 -1.9783984 8.1083565
-1.0034845 -2.8950071 8.3863878
-1.3484559 -3.9142737 8.6240702
-1.7087303 -4.9796772 8.6815948
-1.4434044 -4.2160301 5.9755659
-1.0743053 -3.1451035 3.6812308
-1.0754771 -3.1793323 3.3780298
-1.2462939 -3.6906116 3.2233109
-1.3832972 -4.0986471 2.9207215
-1.3292409 -3.9430017 2.2646666
-1.2732199 -3.7789898 1.6994591
-1.221723 -3.6282222 1.2152461
-1.1713552 -3.4826472 0.78907198
-1.0905986 -3.2425368 0.40007207
-1.1220171 -3.3016975 3.1869853
-1.389714 -4.0940704 3.2316792
-1.3661104 -4.0268288 2.5843849
-1.2931406 -3.8182898 1.9510463
-1.2370945 -3.6548872 1.4320863
-1.1853527 -3.50402 0.98288667
-1.1298093 -3.3398213 0.58396214
-1.075189 -3.1801724 0.22909419
-0.083560348 -0.1102352 14.353726
-0.74558043 -2.0661361 13.963707
-1.0089524 -2.8372602 14.500923
-0.83505583 -2.384989 8.1255188
-1.189036 -3.4224665 8.5951319
-1.5282465 -4.41856 8.6354179
-1.9186944 -5.5661864 8.7197342
-1.4722334 -4.278276 5.4936385
-0.19667122 -0.47252905 8.6899061
-0.52342206 -1.4026741 13.920022
-0.69992656 -1.9759672 8.1083565
-1.0084455 -2.8768301 8.3441534
-1.3621112 -3.9095428 8.6240702
-1.7261024 -4.9736824 8.6815948
-1.4492382 -4.1853395 5.9396553
-1.0863842 -3.1445382 3.6849055
-1.0865686 -3.1755588 3.3780298
-1.2566527 -3.6788723 3.2170343
-1.381384 -4.0463071 2.8878238
-1.3129712 -3.8502905 2.2159719
-1.2624749 -3.7043133 1.6694907
-1.214273 -3.564904 1.1969156
-1.1486957 -3.3762274 0.76855439
-1.0890782 -3.2009935 0.39649543
-1.1323216 -3.2942295 3.1836596
-1.3908705 -4.0509648 3.2022474
-1.3577713 -3.9567974 2.543854
-1.2888108 -3.7622297 1.9258697
-1.2299604 -3.5924685 1.4107208
-1.1771196 -3.4400761 0.96764648
-1.0933633 -3.1952968 0.56324178
-1.0685005 -3.1244013 0.22687735
-0.083916873 -0.10990918 14.348727
-0.75278807 -2.0635209 13.963707
-1.0185055 -2.8327632 14.496029
-0.84337592 -2.3820593 8.1255188
-1.2009754 -3.4182949 8.5951319
-1.5436608 -4.4131985 8.6354179
-1.9390388 -5.5621128 8.7238665
-1.4597654 -4.1944051 5.3938632
-0.19843183 -0.47210559 8.6948977
-0.52831513 -1.4008385 13.920022
-0.70681971 -1.9735121 8.1083565
-1.0132918 -2.858654 8.301918
-1.3750262 -3.9027116 8.6195688
-1.7425895 -4.9651656 8.6773291
-1.4419286 -4.1176891 5.8518748
-1.0984724 -3.1439273 3.6885808
-1.0988131 -3.175117 3.3815343
-1.2694867 -3.6744635 3.2170343
-1.3763928 -3.9861269 2.8494434
-1.310515 -3.7996194 2.1904652
-1.2557569 -3.6429071 1.6451412
-1.2048335 -3.4971478 1.1771752
-1.1221108 -3.2607191 0.74617147
-1.0872811 -3.1595011 0.3929188
-1.1438137 -3.290257 3.1836596
-1.4010246 -4.0346298 3.193418
-1.3475468 -3.8828011 2.5007899
-1.2841057 -3.7062473 1.9006932
-1.2208604 -3.525682 1.3877116
-1.1652752 -3.3670466 0.95006174
-1.1045103 -3.1914608 0.56324178
-1.0565367 -3.0545521 0.22405592
-0.084272139 -0.10958202 14.343727
-0.75998652 -2.0608807 13.963707
-1.0283875 -2.8291905 14.496029
-0.85168576 -2.379101 8.1255188
-1.2122461 -3.4122412 8.5905294
-1.5590564 -4.407783 8.6354179
-1.9556354 -5.5473485 8.7114687
-1.4616284 -4.1530032 5.3478131
-0.19996527 -0.47114453 8.6899061
-0.53339171 -1.3994838 13.924994
-0.71370429 -1.9710327 8.1083565
-1.0174414 -2.838855 8.2549906
-1.3886409 -3.8978879 8.6195688
-1.7599103 -4.9590526 8.6773291
-1.4442232 -4.078546 5.8039947
-1.1105695 -3.1432703 3.6922562
-1.1098896 -3.171262 3.3815343
-1.2900085 -3.6920564 3.2358651
-1.3696198 -3.9220831 2.8083215
-1.304803 -3.7406473 2.1603208
-1.2348906 -3.542196 1.6039344
-1.1965146 -3.4340312 1.1588447
-1.1221833 -3.2243073 0.73964316
-1.081934 -3.108654 0.388448
-1.1552919 -3.2862444 3.1836596
-1.3936713 -3.9686964 3.1463275
-1.3396777 -3.8170602 2.4627922
-1.2775246 -3.6460605 1.8734185
-1.2113094 -3.4590039 1.3647026
-1.1529357 -3.2941422 0.93247694
-1.0796537 -3.0847566 0.54804677
-1.0589446 -3.0272663 0.22304825
-0.084654145 -0.10928719 14.343727
-0.76717573 -2.0582151 13.963707
-1.0379057 -2.8246279 14.491134
-0.85998517 -2.3761137 8.1255188
-1.2241497 -3.4079888 8.5905294
-1.574433 -4.4023142 8.6354179
-1.9759322 -5.5431385 8.715601
-1.4696681 -4.1297574 5.3247886
-0.20160867 -0.47044364 8.6899061
-0.53827357 -1.3976134 13.924994
-0.72101223 -1.9697098 8.1131964
-1.0220531 -2.8206842 8.2127552
-1.4015009 -3.890969 8.6150684
-1.7763292 -4.9504247 8.6730633
-1.4513409 -4.0536213 5.7760644
-1.1226753 -3.1425672 3.6959314
-1.1209527 -3.1673684 3.3815343
-1.3080752 -3.7022107 3.248419
-1.362417 -3.8581364 2.7671995
-1.2986956 -3.681762 2.1301763
-1.2379993 -3.511631 1.5926963
-1.1861756 -3.3664923 1.1391042
-1.1203847 -3.1833014 0.73218215
-1.074592 -3.0531859 0.38353014
-1.1667559 -3.2821915 3.1836596
-1.3831698 -3.8952453 3.0933504
-1.3299246 -3.7473602 2.4222612
-1.2705394 -3.5859656 1.8461437
-1.2013081 -3.392436 1.3416934
-1.1433452 -3.2305303 0.91723686
-1.0854584 -3.0669641 0.54597479
-1.059509 -2.9952917 0.22183907
-0.085035101 -0.10899103 14.343727
-0.77462953 -2.0562518 13.968646
-1.0477592 -2.8209877 14.491134
-0.86827403 -2.3730972 8.1255188
-1.2360383 -3.4036949 8.5905294
-1.5897902 -4.3967915 8.6354179
-1.984774 -5.5070872 8.6701384
-1.4775634 -4.1065063 5.3017635
-0.2032496 -0.46973702 8.6899061
-0.54314882 -1.395726 13.924994
-0.72788346 -1.967181 8.1131964
-1.0277376 -2.805757 8.1799059
-1.4150743 -3.8860533 8.6150684
-1.7927092 -4.9417424 8.6687975
-1.4583023 -4.028697 5.7481346
-1.1347897 -3.1418173 3.6996062
-1.1332035 -3.1667938 3.3850389
-1.3288474 -3.7196145 3.2672496
-1.3533783 -3.7903502 2.723336
-1.290705 -3.6187932 2.097713
-1.2284564 -3.4461534 1.5664738
-1.1753801 -3.2990675 1.1193639
-1.1117253 -3.1238363 0.72099072
-1.0702155 -3.0071909 0.37950641
-1.1782058 -3.2780988 3.1836596
-1.3708069 -3.8181131 3.0374305
-1.3211575 -3.681833 2.3842638
-1.2631506 -3.5259652 1.8188692
-1.1892654 -3.3215356 1.3170408
-1.1251364 -3.1441441 0.89613515
-1.0828094 -3.0258567 0.54044932
-1.0598633 -2.9633505 0.22062989
-0.085415035 -0.10869354 14.343727
-0.78207904 -2.0542614 13.973584
-1.0575999 -2.8173132 14.491134
-0.87655246 -2.3700519 8.1255188
-1.2472385 -3.3975255 8.585927
-1.6051282 -4.3912153 8.6354179
-1.9750837 -5.4208059 8.5461502
-1.4853144 -4.083251 5.278738
-0.20488803 -0.46902469 8.6899061
-0.54801756 -1.3938214 13.924994
-0.73474574 -1.9646282 8.1131964
-1.0351284 -2.7956796 8.1611357
-1.4286307 -3.8810899 8.6150684
-1.8099482 -4.9354544 8.6687975
-1.4692494 -4.0150928 5.7361641
-1.1469127 -3.1410217 3.7032814
-1.1442508 -3.1628189 3.3850389
-1.3338895 -3.6929884 3.248419
-1.3438833 -3.7226751 2.6794724
-1.2837938 -3.5600934 2.0675688
-1.2231877 -3.3938704 1.5458705
-1.1641285 -3.2317598 1.0996233
-1.1026651 -3.0644712 0.70979929
-1.0672174 -2.96595 0.3759298
-1.1896414 -3.2739663 3.1836596
-1.3593019 -3.7449148 2.9844534
-1.3119493 -3.6164131 2.3462658
-1.2538129 -3.4617927 1.7894964
-1.175135 -3.2463205 1.2907445
-1.1261827 -3.1127734 0.88910121
-1.0815716 -2.9894619 0.53561455
-1.0583088 -2.9267454 0.21921916
-0.085793927 -0.10839472 14.343727
-0.78924501 -2.0515189 13.973584
-1.0670664 -2.8126523 14.486238
-0.88429737 -2.3655796 8.1207466
-1.2584109 -3.3913202 8.5813255
-1.6204466 -4.3855858 8.6354179
-1.9220215 -5.2184739 8.2403116
-1.4962398 -4.0690165 5.2672257
-0.20652398 -0.46830666 8.6899061
-0.55268264 -1.3914047 13.920022
-0.74159908 -1.9620515 8.1131964
-1.0418562 -2.783968 8.1376715
-1.4421695 -3.8760796 8.6150684
-1.8262587 -4.926661 8.6645317
-1.4790741 -3.9986353 5.7202039
-1.1590439 -3.1401796 3.7069569
-1.1565092 -3.1621547 3.3885434
-1.3441021 -3.6809976 3.242142
-1.3353664 -3.6590414 2.6383505
-1.2749714 -3.4973245 2.0351055
-1.2128075 -3.3285987 1.519648
-1.1540632 -3.1690795 1.081293
-1.0948831 -3.009824 0.69954044
-1.065647 -2.9294472 0.37280026
-1.2010624 -3.2697937 3.1836596
-1.3473028 -3.671844 2.9314766
-1.3037851 -3.5551507 2.3108015
-1.2393615 -3.384944 1.7538295
-1.1718544 -3.2022879 1.2759531
-1.113667 -3.044915 0.87268877
-1.080093 -2.9531126 0.53077978
-1.0565116 -2.8901875 0.21780844
-0.086200237 -0.10812766 14.348727
-0.79611969 -2.0480273 13.968646
-1.076878 -2.8089106 14.486238
-0.8925494 -2.3624783 8.1207466
-1.2702413 -3.3869066 8.5813255
-1.6357454 -4.3799028 8.6354179
-1.8224084 -4.8952703 7.7443585
-1.4925663 -4.015698 5.2058258
-0.20815744 -0.46758291 8.6899061
-0.55753618 -1.389467 13.920022
-0.74844342 -1.959451 8.1131964
-1.0509571 -2.7787004 8.1329784
-1.4556907 -3.8710217 8.6150684
-1.8434447 -4.9202561 8.6645317
-1.4909126 -3.9878035 5.712224
-1.1711831 -3.1392908 3.7106321
-1.1687768 -3.1614435 3.3920479
-1.3407689 -3.6324651 3.2044804
-1.3235272 -3.587667 2.5917456
-1.2657264 -3.4346609 2.0026422
-1.2051916 -3.2721422 1.4971716
-1.1435747 -3.1065094 1.0629625
-1.0833427 -2.9460485 0.68741637
-1.0638348 -2.8929915 0.36967069
-1.2124687 -3.2655814 3.1836596
-1.3348106 -3.5989037 2.8785
-1.2952095 -3.4939897 2.275337
-1.2259647 -3.3124957 1.7202607
-1.1666423 -3.1538889 1.2595179
-1.0973206 -2.9680648 0.85393173
-1.0783743 -2.9168112 0.52594507
-1.0527408 -2.8489919 0.21619619
-0.08660572 -0.10785908 14.353726
-0.80326378 -2.0452359 13.968646
-1.0866764 -2.8051343 14.486238
-0.90079057 -2.3593485 8.1207466
-1.2820559 -3.382452 8.5813255
-1.6501782 -4.3719254 8.6310282
-1.7671411 -4.6966152 7.4426527
-1.4919211 -3.9714572 5.1559381
-0.20978832 -0.46685344 8.6899061
-0.56238294 -1.3875124 13.920022
-0.75573134 -1.957999 8.1180353
-1.0606502 -2.7750146 8.1329784
-1.4699676 -3.8679514 8.6195688
-1.8606086 -4.9137917 8.6645317
-1.4952376 -3.9572065 5.6763139
-1.1833302 -3.1383555 3.7143068
-1.1810535 -3.1606851 3.3955526
-1.342556 -3.5985889 3.1793728
-1.3126673 -3.5203388 2.5478821
-1.2560602 -3.3721056 1.9701792
-1.1955791 -3.2114356 1.4728222
-1.1343367 -3.048548 1.0460422
-1.0884852 -2.9284356 0.68461853
-1.0617812 -2.8565848 0.36654112
-1.2238604 -3.2613289 3.1836596
-1.3360143 -3.5639443 2.8549547
-1.2862231 -3.4329331 2.2398727
-1.2073067 -3.2274303 1.6803976
-1.1594533 -3.1011431 1.2414393
-1.0991671 -2.9414506 0.84807014
-1.0764151 -2.8805578 0.5211103
-1.0504435 -2.8125391 0.21478549
-0.086981684 -0.1075561 14.353726
-0.80982482 -2.0409751 13.958767
-1.0964614 -2.8013241 14.486238
-0.90902072 -2.3561895 8.1207466
-1.2938551 -3.3779562 8.5813255
-1.6654291 -4.3661385 8.6310282
-1.5254737 -4.0118074 6.3763523
-1.4841591 -3.9092915 5.0830259
-0.21141668 -0.46611831 8.6899061
-0.56722283 -1.3855408 13.920022
-0.76256138 -1.955349 8.1180353
-1.0703304 -2.7712955 8.1329784
-1.4834603 -3.8627968 8.6195688
-1.8777496 -4.9072666 8.6645317
-1.4972173 -3.9209981 5.6324239
-1.194278 -3.1342058 3.7143068
-1.193339 -3.1598792 3.3990569
-1.3454962 -3.5683866 3.1574037
-1.2954551 -3.4374795 2.493053
-1.2459726 -3.30966 1.9377159
-1.1871903 -3.1551757 1.4503458
-1.1263967 -2.9951792 1.0305318
-1.083153 -2.8832319 0.67622495
-1.0594867 -2.8202281 0.36341158
-1.235237 -3.2570372 3.1836596
-1.3326941 -3.5176809 2.8225796
-1.278353 -3.3760135 2.2069414
-1.1960952 -3.1637628 1.6510248
-1.1519104 -3.0484865 1.2233608
-1.0974069 -2.905766 0.8398639
-1.0724665 -2.8397214 0.51558483
-1.0461402 -2.7714627 0.21317324
-0.087385401 -0.1072846 14.358727
-0.81694418 -2.0381358 13.958767
-1.1058587 -2.7965326 14.481342
-0.91669756 -2.3516114 8.1159744
-1.3056386 -3.3734193 8.5813255
-1.6797981 -4.3580637 8.6266394
-1.5283651 -3.9775639 6.3308892
-1.4943516 -3.8951092 5.0715127
-0.21316312 -0.46563974 8.6948977
-0.57205582 -1.3835524 13.920022
-0.76938224 -1.9526752 8.1180353
-1.0793699 -2.7659347 8.1282854
-1.4961474 -3.8555658 8.6150684
-1.8948677 -4.9006824 8.6645317
-1.4967932 -3.8792019 5.5805535
-1.2064292 -3.1331816 3.7179821
-1.2056335 -3.1590266 3.4025614
-1.349628 -3.5418451 3.1385729
-1.2955402 -3.4016759 2.4711211
-1.2354648 -3.2473269 1.9052527
-1.1784236 -3.099014 1.4278694
-1.1198025 -2.9463878 1.0164315
-1.0810058 -2.8472869 0.66969663
-1.058719 -2.7885785 0.36072913
-1.2452625 -3.2492189 3.1803341
-1.3290675 -3.4714847 2.790205
-1.2685606 -3.315165 2.1714766
-1.1941731 -3.1256514 1.6342405
-1.1423298 -2.9915097 1.2036387
-1.097144 -2.874671 0.83283001
-1.070012 -2.8035746 0.51075006
-1.0433438 -2.7351191 0.21176252
-0.087759361 -0.10697892 14.358727
-0.82376194 -2.0345516 13.953828
-1.1156137 -2.7926555 14.481342
-0.92490065 -2.3483973 8.1159744
-1.3174061 -3.3688414 8.5813255
-1.6941314 -4.3499427 8.6222515
-1.5065914 -3.8803916 6.1862364
-1.4975117 -3.8629725 5.0369759
-0.21478721 -0.46489283 8.6948977
-0.57667625 -1.3810552 13.915051
-0.77665859 -1.9511455 8.1228752
-1.0890182 -2.76215 8.1282854
-1.5095967 -3.8503196 8.6150684
-1.9129117 -4.8964672 8.6687975
-1.4971901 -3.8402646 5.5326734
-1.2185881 -3.1321108 3.7216575
-1.2179365 -3.1581261 3.4060662
-1.3410028 -3.4826279 3.0914962
-1.2893836 -3.3503041 2.4382236
-1.2261269 -3.1892426 1.8751084
-1.1709423 -3.0472798 1.407266
-1.1146013 -2.9021575 1.0037411
-1.0786209 -2.8113921 0.66316831
-1.0559596 -2.7523193 0.35759956
-1.2565968 -3.2448523 3.1803341
-1.3236763 -3.4215875 2.7548871
-1.2599142 -3.2584479 2.1385453
-1.187096 -3.0748906 1.6111619
-1.1323653 -2.9346366 1.1839164
-1.0931797 -2.8345432 0.82345146
-1.0655364 -2.7628596 0.50522465
-1.0403064 -2.6988294 0.21035181
-0.088132255 -0.10667193 14.358727
-0.83085883 -2.0316637 13.953828
-1.1253551 -2.7887442 14.481342
-0.93309247 -2.3451545 8.1159744
-1.3298752 -3.3660386 8.585927
-1.7093053 -4.3440022 8.6222515
-1.5088227 -3.8462927 6.1407743
-1.503973 -3.8398149 5.0139503
-0.21640868 -0.46414024 8.6948977
-0.58128625 -1.3785428 13.910079
-0.7839337 -1.949589 8.1277151
-1.0980147 -2.7567289 8.1235924
-1.5222259 -3.8430026 8.6105671
-1.9280767 -4.8849082 8.6602659
-1.4962293 -3.7985682 5.480803
-1.2307541 -3.1309936 3.7253327
-1.2302479 -3.1571784 3.4095707
-1.3362149 -3.4343963 3.0538344
-1.2843999 -3.3029144 2.4080672
-1.2147948 -3.1271348 1.8426452
-1.1614366 -2.9913149 1.3847896
-1.1108408 -2.8624725 0.99246091
-1.0742232 -2.7709689 0.65570736
-1.05296 -2.7161136 0.35446998
-1.2679157 -3.2404461 3.1803341
-1.3164816 -3.368006 2.7166259
-1.2493187 -3.1978168 2.1030807
-1.1813284 -3.0284457 1.5901814
-1.1168723 -2.8646724 1.159264
-1.0889487 -2.7944789 0.81407291
-1.0589917 -2.7175963 0.49900851
-1.0370288 -2.6625946 0.20894109
-0.088504069 -0.10636364 14.358727
-0.83764887 -2.028033 13.948889
-1.1350827 -2.7847991 14.481342
-0.94127291 -2.3418832 8.1159744
-1.3416166 -3.3613758 8.585927
-1.7235734 -4.3357835 8.6178617
-1.5118713 -3.8148422 6.0994444
-1.4996762 -3.7898364 4.956388
-0.21802752 -0.46338201 8.6948977
-0.5858857 -1.3760148 13.905107
-0.7916804 -1.9491694 8.137393
-1.1076308 -2.7528791 8.1235924
-1.5348223 -3.8356447 8.6060658
-1.49611 -3.7597256 5.4329224
-1.2429271 -3.1298287 3.7290075
-1.2425673 -3.156183 3.413075
-1.3296831 -3.3826191 3.0130348
-1.2791013 -3.2556009 2.3779113
-1.2046628 -3.0692692 1.8125007
-1.1549407 -2.9440856 1.3660593
-1.1068169 -2.8228493 0.98118061
-1.0713481 -2.7351849 0.64917898
-1.0497208 -2.6799629 0.35134044
-1.2778466 -3.2325282 3.1770086
-1.3089294 -3.3145173 2.6783648
-1.2367328 -3.1332901 2.065083
-1.1719232 -2.9736347 1.5650047
-1.1182116 -2.8387883 1.1510463
-1.0826709 -2.7499564 0.80352205
-1.0539584 -2.6770208 0.49348307
-1.0353402 -2.6310644 0.2077319
-0.088904068 -0.10608643 14.363726
-0.84472293 -2.0250967 13.948889
-1.1447966 -2.7808201 14.481342
-0.94944185 -2.338583 8.1159744
-1.3526114 -3.354861 8.5813255
-1.7386976 -4.3297405 8.6178617
-1.5147189 -3.7834172 6.058115
-1.4867204 -3.7191012 4.871963
-0.2196437 -0.46261814 8.6948977
-0.59068537 -1.3739613 13.905107
-0.79943389 -1.94872 8.1470718
-1.1165837 -2.7473979 8.1189003
-1.5482019 -3.8302639 8.6060658
-1.4957378 -3.7209308 5.3850422
-1.2551069 -3.1286175 3.7326827
-1.254895 -3.1551402 3.4165797
-1.3228061 -3.3309298 2.9722347
-1.2673174 -3.1928194 2.3367891
-1.1925089 -3.0073953 1.7800375
-1.1464213 -2.8926287 1.3454559
-1.1025304 -2.7832897 0.96990037
-1.0682366 -2.6994553 0.6426506
-1.0480746 -2.648499 0.348658
-1.286353 -3.2211134 3.1703577
-1.2980243 -3.2536142 2.6342175
-1.2237118 -3.068891 2.0270855
-1.1621499 -2.9189267 1.5398282
-1.117638 -2.8085425 1.1411853
-1.0760959 -2.705512 0.79297125
-1.0468247 -2.6319125 0.48726696
-1.0334444 -2.5995793 0.20652272
-0.089273833 -0.10577545 14.363726
-0.85148495 -2.0214198 13.943949
-1.1544966 -2.7768068 14.481342
-0.95703286 -2.3338737 8.1112022
-1.364314 -3.3501191 8.5813255
-1.7538006 -4.3236451 8.6178617
-1.5131453 -3.7415843 6.0002537
-1.4672884 -3.6336434 4.7683501
-0.22125719 -0.46184862 8.6948977
-0.59547776 -1.3718911 13.905107
-0.8071937 -1.94824 8.1567507
-1.1255116 -2.7418869 8.1142082
-1.5615627 -3.824836 8.6060658
-1.7481456 -4.2967544 7.6577711
-1.4973806 -3.6877682 5.3451419
-1.2672935 -3.1273592 3.7363579
-1.2672305 -3.1540499 3.4200842
-1.3155848 -3.2793303 2.9314349
-1.2535549 -3.1262794 2.2929258
-1.179938 -2.9456441 1.7475743
-1.1392802 -2.8455713 1.3267256
-1.0997633 -2.7482481 0.96003014
-1.0667121 -2.6683424 0.63705492
-1.044373 -2.6124551 0.34552842
-1.296192 -3.2131407 3.167032
-1.2851994 -3.1890795 2.587127
-1.205425 -2.9926262 1.9814882
-1.1537026 -2.8685343 1.5167495
-1.1151057 -2.7739544 1.1296808
-1.0782846 -2.6836984 0.78828198
-1.0523129 -2.6190522 0.48588559
-1.0332034 -2.5727758 0.20551507
-0.089642517 -0.10546318 14.363726
-0.85823166 -2.0177202 13.93901
-1.1641823 -2.7727602 14.481342
-0.96517372 -2.3305187 8.1112022
-1.3759998 -3.3453362 8.5813255
-1.7688823 -4.3174968 8.6178617
-1.5208759 -3.7232544 5.979589
-1.4424361 -3.5364962 4.6493878
-0.222868 -0.46107346 8.6948977
-0.60026294 -1.369804 13.905107
-0.81496 -1.9477297 8.1664305
-1.1344149 -2.7363474 8.1095152
-1.5749043 -3.8193622 8.6060658
-1.7472724 -4.2520294 7.5895162
-1.4942367 -3.6434884 5.2892814
-1.2794865 -3.126054 3.7400334
-1.2809148 -3.1562161 3.4270935
-1.3080195 -3.2278225 2.8906348
-1.2393436 -3.0598755 2.2490623
-1.1603045 -2.8675928 1.7058359
-1.1335628 -2.8028975 1.3098683
-1.0985631 -2.7177079 0.95156991
-1.0649837 -2.6372733 0.63145918
-1.0422975 -2.5810878 0.34284595
-1.3045821 -3.2016811 3.1603813
-1.2719399 -3.1246741 2.5400362
-1.2028669 -2.9564569 1.9612229
-1.1415017 -2.8098276 1.4894748
-1.1123457 -2.7394185 1.1181762
-1.0803343 -2.6619029 0.78359264
-1.0539995 -2.5970089 0.48312286
-1.0309098 -2.5413766 0.20430589
-0.090010107 -0.10514963 14.363726
-0.8652696 -2.0147121 13.93901
-1.173854 -2.7686794 14.481342
-0.9733029 -2.3271353 8.1112022
-1.3876687 -3.3405128 8.5813255
-1.7839423 -4.311296 8.6178617
-1.5263505 -3.6997137 5.9506583
-1.441342 -3.4988399 4.6071749
-0.22434904 -0.46003345 8.6899061
-0.60525662 -1.3681879 13.910079
-0.82224321 -1.9460309 8.1712694
-1.143293 -2.7307792 8.1048222
-1.5882267 -3.8138413 8.6060658
-1.7321123 -4.1736407 7.4615388
-1.5023332 -3.6271148 5.2733216
-1.2916857 -3.1247015 3.7437081
-1.2932768 -3.1550252 3.4305978
-1.3001108 -3.1764076 2.8498349
-1.2231011 -2.9897392 2.2024574
-1.1686314 -2.8594248 1.7035172
-1.1310679 -2.768882 1.2967571
-1.0971631 -2.6872096 0.94310975
-1.0649067 -2.6107974 0.62679613
-1.0400158 -2.5497668 0.34016347
-1.3129081 -3.190202 3.1537302
-1.2536359 -3.0491867 2.4841163
-1.1967942 -2.9123673 1.935891
-1.1426884 -2.7848322 1.4789846
-1.1111501 -2.709305 1.1083151
-1.082245 -2.6401258 0.77890337
-1.0555451 -2.5749855 0.48036015
-1.030304 -2.5146475 0.20329823
-0.090346888 -0.10480283 14.358727
-0.87229693 -2.0116794 13.93901
-1.1831105 -2.763629 14.476447
-0.98083931 -2.3223488 8.1064301
-1.3985649 -3.3338468 8.5767221
-1.7989807 -4.3050427 8.6178617
-1.530597 -3.6735828 5.9175949
-1.4289217 -3.4346011 4.5304251
-0.22595349 -0.45924753 8.6899061
-0.6100288 -1.3660668 13.910079
-0.82952434 -1.9443047 8.1761084
-1.1521463 -2.7251821 8.1001291
-1.600686 -3.8062677 8.6015644
-1.7234832 -4.1122465 7.3634214
-1.4894027 -3.5606918 5.1855407
-1.3038913 -3.1233022 3.7473834
-1.3083745 -3.160377 3.4411118
-1.2933465 -3.1286852 2.8121734
-1.2063844 -2.9197547 2.1558526
-1.1600131 -2.8102865 1.6780103
-1.1283494 -2.7349184 1.2836459
-1.0955638 -2.656755 0.93464959
-1.0627871 -2.579813 0.62120038
-1.0375283 -2.5184937 0.33748099
-1.3197367 -3.1752565 3.1437538
-1.2456712 -2.9999964 2.4487984
-1.1904284 -2.8683572 1.9105593
-1.141977 -2.7556701 1.4663963
-1.1079509 -2.674871 1.0968106
-1.0821577 -2.6138773 0.77304184
-1.0550557 -2.5484083 0.47690675
-1.0295241 -2.4879541 0.20229056
-0.090712167 -0.10448682 14.358727
-0.87962544 -2.0093341 13.943949
-1.1927501 -2.7594824 14.476447
-0.98893988 -2.3189108 8.1064301
-1.4101937 -3.3289447 8.5767221
-1.8139971 -4.298737 8.6178617
-1.5390453 -3.6578422 5.901063
-1.4160707 -3.370492 4.4536748
-0.22742632 -0.45819768 8.6849136
-0.61479354 -1.3639292 13.910079
-0.83680362 -1.9425516 8.1809483
-1.1609744 -2.7195568 8.0954361
-1.6139625 -3.800657 8.6015644
-1.706315 -4.0317507 7.2311778
-1.488925 -3.5249379 5.1416507
-1.3174198 -3.1249797 3.754734
-1.3193984 -3.1557906 3.4411118
-1.2862653 -3.0810494 2.7745121
-1.2085174 -2.8962309 2.1421452
-1.1578844 -2.7775989 1.6617787
-1.1254077 -2.7010078 1.2705346
-1.0937653 -2.6263442 0.92618936
-1.0623509 -2.5534105 0.61653727
-1.0329223 -2.4826715 0.33435145
-1.3105812 -3.1224315 3.0971966
-1.2420676 -2.9620819 2.4223099
-1.1854364 -2.8284025 1.8877606
-1.1410761 -2.7265472 1.4538081
-1.1063474 -2.6448488 1.0869495
-1.0819005 -2.5876617 0.7671802
-1.0543938 -2.5218658 0.47345334
-1.0266442 -2.4566875 0.20108138
-0.091076344 -0.10416954 14.358727
-0.88694805 -2.0069621 13.948889
-1.201968 -2.7543685 14.471552
-0.99702829 -2.3154447 8.1064301
-1.421037 -3.3222058 8.5721197
-1.8289915 -4.2923784 8.6178617
-1.5363983 -3.6161888 5.8432016
-1.4002861 -3.3006139 4.3692498
-0.22902434 -0.45740101 8.6849136
-0.61955082 -1.3617748 13.910079
-0.8445822 -1.9419242 8.1906271
-1.1697772 -2.713903 8.0907431
-1.6263614 -3.792999 8.5970631
-1.6855314 -3.944231 7.0861359
-1.461025 -3.4254827 5.0059896
-1.3283199 -3.120362 3.754734
-1.329019 -3.1478803 3.437607
-1.2788671 -3.0335019 2.7368505
-1.2023826 -2.853462 2.1147306
-1.1538229 -2.7408781 1.6432283
-1.1222434 -2.6671519 1.2574234
-1.0936278 -2.6004007 0.91913921
-1.0598408 -2.5225141 0.61094159
-1.031937 -2.4560947 0.33211604
-1.3200154 -3.1143997 3.0938711
-1.2366388 -2.9205077 2.3928783
-1.1801803 -2.7885187 1.864962
-1.1364522 -2.6891029 1.4370235
-1.1063854 -2.6192207 1.0787319
-1.0814736 -2.5614803 0.76131868
-1.0516332 -2.4907975 0.46930927
-1.023559 -2.425472 0.1998722
-0.09140937 -0.10381935 14.353726
-0.89394832 -2.0038538 13.948889
-1.2115752 -2.7501564 14.471552
-1.0056999 -2.3133192 8.1112022
-1.4326251 -3.3172252 8.5721197
-1.8449103 -4.288168 8.6222515
-1.5467927 -3.6056314 5.8349357
-1.3953909 -3.2574048 4.3193626
-0.23061958 -0.45659879 8.6849136
-0.62407792 -1.3591194 13.905107
-0.85236645 -1.9412659 8.2003059
-1.1785545 -2.7082205 8.086051
-1.6395916 -3.7872989 8.5970631
-1.6631247 -3.854512 6.9368281
-1.434833 -3.3318017 4.8783092
-1.339204 -3.1157064 3.754734
-1.3358033 -3.1333804 3.4270935
-1.2711531 -2.9860437 2.6991892
-1.1877781 -2.7915335 2.0736084
-1.1495193 -2.7042198 1.6246779
-1.1206694 -2.6376176 1.2461853
-1.0914474 -2.570075 0.91067898
-1.0590466 -2.4961886 0.60627842
-1.028834 -2.4249711 0.32943356
-1.3117805 -3.0651491 3.0506394
-1.229346 -2.8752913 2.3605034
-1.1746603 -2.7487061 1.8421633
-1.1333625 -2.6558995 1.4223372
-1.1044053 -2.5892816 1.0688709
-1.0808769 -2.5353332 0.75545704
-1.0486689 -2.4597793 0.4651652
-1.0222268 -2.3989041 0.19886455
-0.091771215 -0.10349964 14.353726
-0.90093756 -2.000721 13.948889
-1.2207539 -2.7449801 14.466657
-1.0137688 -2.3097944 8.1112022
-1.4434146 -3.3104131 8.5675173
-1.8550961 -4.2707186 8.6003056
-1.5392367 -3.553731 5.7605429
-1.3889385 -3.211328 4.2656374
-0.23208041 -0.45553401 8.6799221
-0.62881827 -1.3569326 13.905107
-0.86066586 -1.9417261 8.2148237
-1.1880008 -2.7040904 8.086051
-1.6519299 -3.7795579 8.5925617
-1.6442792 -3.7745626 6.8045845
-1.4176178 -3.2604527 4.7825484
-1.344673 -3.098573 3.7400334
-1.3213518 -3.0697367 3.3640118
-1.2631234 -2.9386768 2.6615274
-1.1925634 -2.7758448 2.0653841
-1.1484685 -2.6757669 1.6107651
-1.117075 -2.6038666 1.2330739
-1.0909593 -2.5442052 0.90362883
-1.0580819 -2.4699001 0.60161537
-1.0274874 -2.3984771 0.32719818
-1.3076612 -3.0262771 3.0173848
-1.2233547 -2.833873 2.3310721
-1.1705849 -2.7129247 1.821898
-1.1300551 -2.6227505 1.4076508
-1.1022298 -2.5593884 1.0590098
-1.0801111 -2.509222 0.74959546
-1.0455008 -2.4288125 0.46102113
-1.0187472 -2.3677859 0.19765536
-0.092131928 -0.10317867 14.353726
-0.90759432 -1.9968567 13.943949
-1.2303282 -2.7407022 14.466657
-1.0224299 -2.3076065 8.1159744
-1.4549613 -3.3053544 8.5675173
-1.8690305 -4.2620234 8.5959158
-1.5155523 -3.4658313 5.6282883
-1.3821818 -3.1653366 4.2119122
-0.23380159 -0.45497763 8.6849136
-0.63332516 -1.3542467 13.900136
-0.86846542 -1.9410045 8.2245026
-1.1967331 -2.6983497 8.0813589
-1.665113 -3.7737687 8.5925617
-1.6143966 -3.6709189 6.6296811
-1.4120338 -3.2168565 4.7266879
-1.3337131 -3.0441775 3.6812308
-1.3206873 -3.0389397 3.3359754
-1.2532294 -2.8878326 2.6207275
-1.1889335 -2.7409761 2.0434523
-1.1454718 -2.6432896 1.5945336
-1.1132591 -2.5701737 1.2199627
-1.0883981 -2.5139685 0.8951686
-1.0569464 -2.4436488 0.59695226
-1.0259684 -2.3720222 0.32496279
-1.2928355 -2.9635153 2.9608512
-1.2154745 -2.7888262 2.2986972
-1.1662742 -2.6772056 1.8016325
-1.1265302 -2.5896575 1.3929645
-1.1017421 -2.5338724 1.0507922
-1.0772392 -2.4786897 0.74256152
-1.0401556 -2.3933561 0.45618635
-1.0150628 -2.3367217 0.19644617
-0.092521898 -0.10288776 14.358727
-0.91455913 -1.9936764 13.943949
-1.2398876 -2.7363908 14.466657
-1.0304788 -2.3040235 8.1159744
-1.4656968 -3.2984703 8.5629148
-1.8635358 -4.2094841 8.503746
-1.499229 -3.3961618 5.5249643
-1.3738283 -3.1164994 4.1543498
-0.23498829 -0.45339063 8.66994
-0.63804847 -1.3520278 13.900136
-0.8767879 -1.9413979 8.2390213
-1.2061448 -2.6941559 8.0813589
-1.6773899 -3.7659447 8.5880604
-1.6060351 -3.617588 6.5443625
-1.3988382 -3.1568105 4.6468878
-1.3347316 -3.0178001 3.6555042
-1.3169583 -3.0016537 3.3009298
-1.2429959 -2.8370934 2.5799274
-1.1884298 -2.7138278 2.0270035
-1.1404868 -2.6068079 1.5759832
-1.111079 -2.5407867 1.2087245
-1.0875605 -2.4881761 0.88811845
-1.0536748 -2.4129338 0.59135652
-1.0242773 -2.3456073 0.32272738
-1.2805979 -2.9077289 2.9109688
-1.2105508 -2.7512693 2.2722087
-1.163464 -2.6454961 1.7839004
-1.1246129 -2.5607767 1.3803761
-1.0991919 -2.5040679 1.0409312
-1.0761201 -2.4526591 0.7367
-1.0365657 -2.3625023 0.45204225
-1.0151874 -2.3148632 0.19564004
-0.09288048 -0.10256418 14.358727
-0.92151278 -1.9904718 13.943949
-1.2490082 -2.7311201 14.461761
-1.0385151 -2.3004124 8.1159744
-1.4772018 -3.293334 8.5629148
-1.4515105 -3.2572503 5.3100514
-1.3651508 -3.0677593 4.096787
-0.23656949 -0.45256761 8.66994
-0.64276403 -1.3497924 13.900136
-0.88460225 -1.9406129 8.2487001
-1.214831 -2.6883566 8.0766659
-1.6905253 -3.7600663 8.5880604
-1.5941212 -3.5572209 6.4462457
-1.3938538 -3.1161506 4.5950174
-1.3314362 -2.9821668 3.618753
-1.3129855 -2.9644315 3.2658844
-1.2308493 -2.782902 2.5359893
-1.1843698 -2.6790681 2.0050719
-1.1388409 -2.5784981 1.5620704
-1.11058 -2.5156879 1.1993594
-1.0846196 -2.4580321 0.87965822
-1.0521834 -2.3867667 0.58669341
-1.0224146 -2.3192334 0.320492
-1.2710207 -2.8588881 2.8677373
-1.2070206 -2.7174749 2.2486634
-1.1604468 -2.6138389 1.7661681
-1.1206686 -2.5277925 1.3656898
-1.0964472 -2.4743121 1.0310701
-1.0728642 -2.4222226 0.72966611
-1.032773 -2.3317027 0.44789818
-1.0070819 -2.2747593 0.1940278
-0.093268521 -0.10227045 14.363726
-0.92845517 -1.9872432 13.943949
-1.258534 -2.7267437 14.461761
-1.0459197 -2.2954149 8.1112022
-1.4878829 -3.2863779 8.5583124
-1.7165967 -3.8055885 7.7181001
-1.4432464 -3.2085361 5.2397914
-1.3574635 -3.0220423 4.0430622
-0.38422537 -0.72751516 14.065923
-0.64747179 -1.3475405 13.900136
-0.89242172 -1.9397968 8.258379
-1.2242078 -2.6840997 8.0766659
-1.7027404 -3.7521603 8.583559
-1.5699821 -3.4708436 6.3012042
-1.3873627 -3.072818 4.5391569
-1.3279084 -2.946593 3.5820012
-1.3073131 -2.9240179 3.2273343
-1.2310348 -2.7572637 2.5171585
-1.1800816 -2.6443701 1.9831401
-1.1352074 -2.546186 1.5458387
-1.108032 -2.4863889 1.1881212
-1.0834337 -2.4323213 0.87260813
-1.0485251 -2.3561518 0.58109772
-1.0203803 -2.2929015 0.31825659
-1.2595893 -2.8067436 2.8211801
-1.2016158 -2.6800511 2.2221751
-1.1554599 -2.5783019 1.7459027
-1.1183618 -2.4990096 1.3531015
-1.0935082 -2.4446065 1.0212091
-1.0694089 -2.391839 0.72263211
-1.0287782 -2.3009589 0.44375411
-1.0170546 -2.2757914 0.19422933
-0.093624942 -0.10194427 14.363726
-0.9353863 -1.9839901 13.943949
-1.2680444 -2.7223339 14.461761
-1.0539259 -2.29175 8.1112022
-1.4993454 -3.2811642 8.5583124
-1.7110144 -3.7581592 7.6347084
-1.4276795 -3.1445463 5.144733
-1.3481503 -2.9734974 3.9854991
-0.3852663 -0.72336853 14.011014
-0.65217161 -1.3452722 13.900136
-0.90024626 -1.9389499 8.2680578
-1.2328479 -2.6782424 8.0719728
-1.7158276 -3.7461939 8.583559
-1.5495924 -3.3941689 6.1732264
-1.3818359 -3.0323114 4.487287
-1.3241485 -2.9110811 3.5452492
-1.3013749 -2.8836808 3.1887844
-1.2262585 -2.7210126 2.4889123
-1.1755658 -2.609735 1.9612085
-1.1331803 -2.5179703 1.5319259
-1.1071951 -2.4613669 1.178756
-1.0801144 -2.4022737 0.8641479
-1.046679 -2.3300731 0.57643461
-1.0181748 -2.2666125 0.3160212
-1.2616757 -2.7853243 2.8045526
-1.1976311 -2.6463807 2.1986296
-1.1520159 -2.5467594 1.7281704
-1.1177361 -2.4744101 1.3426112
-1.0884322 -2.4106479 1.0097045
-1.0657548 -2.3615096 0.71559823
-1.0266185 -2.2747855 0.4403007
-1.0106121 -2.2403491 0.19281861
-0.093980223 -0.10161683 14.363726
-0.94230604 -1.9807129 13.943949
-1.2775394 -2.7178912 14.461761
-1.0619191 -2.2880573 8.1112022
-1.5116079 -3.2776845 8.5629148
-1.7221222 -3.7478108 7.6259298
-1.4175457 -3.0934958 5.0703402
-1.3478514 -2.9454572 3.9547992
-0.38724133 -0.7210027 13.991048
-0.65686351 -1.3429874 13.900136
-0.90807587 -1.9380722 8.2777367
-1.2421892 -2.6739228 8.0719728
-1.7298071 -3.7421575 8.5880604
-1.5144978 -3.2868867 5.9897909
-1.3747844 -2.9891434 4.4314265
-1.3187426 -2.8725502 3.5048227
-1.2936931 -2.8401756 3.1467297
-1.2228559 -2.6883717 2.4638047
-1.170823 -2.5751641 1.9392767
-1.1309704 -2.4898005 1.5180131
-1.1061972 -2.4363813 1.1693908
-1.078581 -2.3766475 0.85709774
-1.0446637 -2.3040359 0.5717715
-1.0178547 -2.2449024 0.31423289
-1.2558656 -2.7469466 2.7712977
-1.1900675 -2.6054182 2.169198
-1.1483659 -2.5152726 1.710438
-1.1169527 -2.4498458 1.332121
-1.0870491 -2.385349 1.001487
-1.0639172 -2.3356583 0.7097367
-1.0263416 -2.2531617 0.43753797
-0.99358398 -2.182246 0.19040024
-0.094303451 -0.10125736 14.358727
-0.94921428 -1.9774116 13.943949
-1.2870189 -2.7134151 14.461761
-1.0692662 -2.2829847 8.1064301
-1.5230398 -3.272388 8.5629148
-1.7311634 -3.7330856 7.6083732
-1.4082544 -3.0451093 5.0000801
-1.3446856 -2.9116356 3.9164243
-0.3886534 -0.71761709 13.951115
-0.66154748 -1.3406864 13.900136
-0.91644764 -1.9382997 8.2922554
-1.2515154 -2.6695702 8.0719728
-1.7428591 -3.7360964 8.5880604
-1.4610783 -3.1420555 5.738101
-1.368717 -2.9487953 4.3795562
-1.3145094 -2.8371692 3.4680707
-1.2857233 -2.7967598 3.1046753
-1.2192407 -2.6557882 2.4386971
-1.165853 -2.540658 1.9173449
-1.1304237 -2.4657037 1.5064191
-1.1069698 -2.415647 1.1618987
-1.076882 -2.3510613 0.85004753
-1.0424793 -2.2780414 0.56710839
-1.0173956 -2.2232225 0.31244457
-1.2513672 -2.7120337 2.7413681
-1.1856171 -2.5718825 2.1456528
-1.1445104 -2.4838428 1.6927059
-1.1160113 -2.425317 1.3216307
-1.0835295 -2.3557992 0.99162596
-1.0619119 -2.309849 0.70387506
-1.0279948 -2.2360675 0.43546596
-0.94069982 -2.0471165 0.18455586
-0.094625309 -0.10089688 14.353726
-0.95611095 -1.9740862 13.943949
-1.2964826 -2.7089059 14.461761
-1.0765909 -2.2778888 8.1016588
-1.5344534 -3.2670517 8.5629148
-1.4034033 -3.0070257 4.946352
-1.3399457 -2.8749671 3.8742115
-0.38990787 -0.71397728 13.90619
-0.66646093 -1.3388461 13.905107
-0.9242906 -1.9373575 8.3019333
-1.2608262 -2.6651855 8.0719728
-1.75589 -3.72999 8.5880604
-1.4476616 -3.0849946 5.6442499
-1.3623849 -2.9085264 4.3276858
-1.3086095 -2.7987823 3.4276443
-1.2744646 -2.7469645 3.0556116
-1.2137767 -2.6197312 2.4104509
-1.1606567 -2.5062189 1.8954132
-1.1278626 -2.4376206 1.4925063
-1.1056652 -2.3907299 1.1525337
-1.0770307 -2.3298707 0.84440744
-1.0401264 -2.2520907 0.56244534
-1.0147095 -2.197052 0.31020918
-1.2434882 -2.6704164 2.7047877
-1.170717 -2.5164211 2.1044486
-1.1404495 -2.4524708 1.6749736
-1.1149124 -2.400825 1.3111404
-1.0837934 -2.3348699 0.98505193
-1.0597398 -2.2840824 0.69801354
-1.0274569 -2.2144971 0.43270323
-0.97516435 -2.1027398 0.18717575
-0.094976924 -0.10056596 14.353726
-0.96299595 -1.9707366 13.943949
-1.3059305 -2.7043641 14.461761
-1.0845356 -2.274117 8.1016588
-1.5458481 -3.2616756 8.5629148
-1.3971045 -2.9664674 4.8884902
-1.336331 -2.8412681 3.8358369
-0.39225814 -0.71235913 13.901197
-0.67113036 -1.3365115 13.905107
-0.93268353 -1.937517 8.316452
-1.2701218 -2.660768 8.0719728
-1.7698336 -3.7258046 8.5925617
-1.4383299 -3.0374951 5.5674634
-1.3570765 -2.8710623 4.2798057
-1.3024578 -2.7604716 3.3872175
-1.2779967 -2.7295802 3.0415933
-1.208076 -2.5837452 2.3822048
-1.1552343 -2.4718475 1.8734815
-1.123245 -2.4055727 1.4762747
-1.1042002 -2.3658514 1.1431684
-1.0750165 -2.3043609 0.83735728
-1.0396804 -2.2306368 0.55871487
-1.0160608 -2.1799552 0.30886793
-1.2353343 -2.6288879 2.6682072
-1.1760582 -2.5050015 2.0985622
-1.138015 -2.4250603 1.6597745
-1.1136563 -2.3763707 1.3006502
-1.0819212 -2.3096912 0.97683436
-1.0574007 -2.2583594 0.6921519
-1.0288811 -2.1974425 0.43063119
-0.98885143 -2.1128976 0.18778035
-0.095327392 -0.10023382 14.353726
-0.96986926 -1.9673631 13.943949
-1.3153626 -2.699789 14.461761
-1.09182 -2.2689726 8.0968876
-1.5572242 -3.2562597 8.5629148
-1.391748 -2.9285319 4.8347621
-1.331123 -2.8047338 3.7936239
-0.39474237 -0.71098554 13.901197
-0.6757915 -1.3341607 13.905107
-0.93999022 -1.9353801 8.3212919
-1.2794019 -2.6563184 8.0719728
-1.7828283 -3.719604 8.5925617
-1.4343064 -3.0018642 5.5120063
-1.3515232 -2.8336711 4.231925
-1.2975121 -2.7252991 3.3504658
-1.2738053 -2.6960824 3.0100524
-1.202139 -2.5478313 2.3539586
-1.1495863 -2.4375443 1.8515497
-1.1203059 -2.3775938 1.4623619
-1.1025751 -2.3410125 1.1338032
-1.0728375 -2.2788935 0.83030707
-1.0370067 -2.2047687 0.5540517
-1.0151858 -2.1583698 0.30707961
-1.2221063 -2.5773282 2.6216502
-1.1726811 -2.4753113 2.07796
-1.1354034 -2.397697 1.6445755
-1.1103029 -2.347852 1.2880619
-1.0798867 -2.2845542 0.96861678
-1.054895 -2.2326806 0.68629032
-1.0280831 -2.1759279 0.42786846
-0.99408734 -2.1049156 0.18757881
-0.095645361 -0.099870101 14.348727
-0.97638464 -1.9632699 13.93901
-1.3243295 -2.6942675 14.456867
-1.0990816 -2.2638047 8.0921154
-1.5677321 -3.2490447 8.5583124
-1.4821384 -3.0826054 6.3355403
-1.3861438 -2.8906705 4.781034
-1.3256764 -2.7682712 3.7514117
-0.39708042 -0.7093516 13.896206
-0.68044454 -1.3317937 13.905107
-0.94784665 -1.9343445 8.3309708
-1.2886664 -2.6518364 8.0719728
-1.7948532 -3.7113981 8.5880604
-1.4277866 -2.961601 5.4480176
-1.3457257 -2.7963538 4.1840448
-1.2938048 -2.6932509 3.3173892
-1.2709306 -2.6658666 2.9820161
-1.1959662 -2.5119908 2.3257127
-1.1455098 -2.4070868 1.8323594
-1.1171852 -2.3496649 1.4484491
-1.1007901 -2.3162141 1.124438
-1.0704938 -2.2534697 0.82325697
-1.0362715 -2.1833842 0.55032122
-1.0141726 -2.136817 0.3052913
-1.2165916 -2.5427337 2.5917206
-1.1708546 -2.4493227 2.0603011
-1.1326146 -2.3703816 1.6293764
-1.1087186 -2.3234813 1.2775716
-1.0776899 -2.25946 0.96039933
-1.054315 -2.2114348 0.68160105
-1.0271478 -2.1544459 0.42510575
-0.9992795 -2.0969226 0.18737729
-0.095993385 -0.099535629 14.348727
-0.98323178 -1.9598498 13.93901
-1.333726 -2.6896281 14.456867
-1.106977 -2.2599545 8.0921154
-1.5790638 -3.2435524 8.5583124
-1.4688458 -3.0278528 6.2345915
-1.3790668 -2.8503511 4.7231727
-1.3199918 -2.7318811 3.7091992
-0.39941189 -0.70770997 13.891214
-0.68508917 -1.3294103 13.905107
-0.954593 -1.9310241 8.3309708
-1.2979152 -2.6473219 8.0719728
-1.8030245 -3.6953282 8.5655546
-1.4221443 -2.9237652 5.3882942
-1.3410004 -2.7618227 4.1401544
-1.2884111 -2.6582115 3.2806377
-1.2632228 -2.6260629 2.9434662
-1.1912434 -2.479733 2.3006048
-1.1412351 -2.3766885 1.8131692
-1.1138834 -2.3217874 1.4345363
-1.0988457 -2.2914569 1.1150728
-1.0679859 -2.2280905 0.81620675
-1.0332778 -2.1576014 0.54565811
-1.0130213 -2.115298 0.30350298
-1.2173434 -2.5216594 2.5750933
-1.1653489 -2.4160955 2.036756
-1.129649 -2.3431153 1.6141773
-1.1050091 -2.2950618 1.2649833
-1.0732836 -2.2301543 0.95053828
-1.0514926 -2.1858404 0.67573947
-1.0239283 -2.1285346 0.42165235
-1.0065931 -2.0934217 0.18737729
-0.096340246 -0.099199943 14.348727
-0.99006695 -1.9564058 13.93901
-1.3431065 -2.6849561 14.456867
-1.114859 -2.2560768 8.0921154
-1.5903763 -3.2380207 8.5583124
-1.4604539 -2.9839864 6.1555882
-1.3729599 -2.8126454 4.6694441
-1.3140694 -2.6955647 3.6669865
-0.40173677 -0.70606071 13.886223
-0.68972552 -1.3270108 13.905107
-0.96188873 -1.9288051 8.3358097
-1.3071481 -2.6427751 8.0719728
-1.8139896 -3.6851058 8.5565519
-1.4151063 -2.8836637 5.3243051
-1.3360507 -2.7273593 4.0962644
-1.2842782 -2.6262884 3.2475612
-1.2568098 -2.5895541 2.9084206
-1.1863103 -2.4475393 2.2754972
-1.136762 -2.3463488 1.7939789
-1.1104008 -2.2939615 1.4206235
-1.0967419 -2.2667418 1.1057078
-1.0653138 -2.2027559 0.8091566
-1.0322541 -2.1362896 0.54192764
-1.0117322 -2.0938134 0.30171469
-1.2146931 -2.4938974 2.5518146
-1.1613945 -2.3865716 2.0161538
-1.1265072 -2.3158989 1.5989783
-1.1011146 -2.2666967 1.252395
-1.0686858 -2.200907 0.94067723
-1.0506266 -2.1646655 0.67105019
-1.0205406 -2.1026721 0.41819894
-0.99862969 -2.0584311 0.18596657
-0.096685931 -0.09886305 14.348727
-0.99689001 -1.952938 13.93901
-1.3524706 -2.6802516 14.456867
-1.1227274 -2.2521713 8.0921154
-1.5981996 -3.2254474 8.5399027
-1.4602571 -2.957396 6.1116977
-1.3666067 -2.7750175 4.615716
-1.3093245 -2.6621997 3.6286116
-0.40405497 -0.70440388 13.88123
-0.69410586 -1.3241231 13.900136
-0.96748573 -1.92319 8.3261309
-1.3163652 -2.6381962 8.0719728
-1.4089632 -2.8459852 5.2645822
-1.3308769 -2.6929643 4.0523744
-1.2799382 -2.5944271 3.2144847
-1.2501577 -2.5531225 2.8733752
-1.181167 -2.4154108 2.2503896
-1.1339277 -2.3198266 1.7775302
-1.1086816 -2.2701695 1.4090296
-1.0944791 -2.2420692 1.0963426
-1.0645819 -2.1817791 0.80351645
-1.0289419 -2.1105962 0.53726459
-1.0124881 -2.0768402 0.30037344
