# .PCD v0.7 - Point Cloud Data file format
VERSION 0.7
FIELDS x y z
SIZE 4 4 4
TYPE F F F
COUNT 1 1 1
WIDTH 1495
HEIGHT 1
VIEWPOINT 0 0 0 1 0 0 0
POINTS 1495
DATA ascii
-0.016108405 0.052274417 4.7540922
-1.1658211 1.928229 14.324272
-1.3879468 2.2716136 12.821861
-1.0463765 1.6939486 6.4123764
-0.59430182 0.95681334 2.7131064
-0.71699673 1.150847 2.5521543
-0.88270688 1.4135977 2.5203109
-0.86584705 1.385 2.0322096
-0.22676271 0.41920078 8.080924
-0.36193144 0.61310208 6.5969973
-1.3512021 2.2054856 9.9957323
-1.0917529 1.7688391 5.7068186
-0.63630283 1.0264707 2.5609353
-0.79389733 1.277295 2.5301185
-0.87246579 1.401558 2.2608531
-0.8489846 1.3617381 1.8179222
-0.83246738 1.326465 1.6187476
-0.80714548 1.284639 1.3057142
-0.78219825 1.2444588 1.0483003
-0.76968199 1.223611 0.84324241
-0.76090586 1.2091998 0.66554505
-0.75151795 1.1938279 0.5045895
-0.74361384 1.1803671 0.35633627
-0.73251921 1.1627607 0.21632259
-0.81777149 1.3071065 1.4543995
-0.79503316 1.2697886 1.1744099
-0.774391 1.2363482 0.94288492
-0.7601037 1.2121401 0.74886233
-0.75562811 1.2045451 0.58403569
-0.744178 1.185842 0.42838046
-0.73697037 1.1743613 0.28558838
-0.73035073 1.1633714 0.14908642
-0.015925834 0.052330326 4.7540922
-1.1590831 1.9322867 14.324272
-1.3858143 2.2860229 12.875708
-1.0342177 1.6874089 6.3742008
-0.59505767 0.96553499 2.7315164
-0.71297514 1.1533427 2.5521543
-0.88073123 1.4214545 2.5285769
-0.86607581 1.3961855 2.0437222
-0.22529805 0.41998976 8.080924
-0.35951999 0.61390156 6.5920253
-1.3545935 2.2284491 10.078002
-1.0945832 1.787356 5.753746
-0.63271594 1.0286856 2.5609353
-0.7894339 1.2800584 2.5301185
-0.87231845 1.4122862 2.2728233
-0.84957641 1.3733428 1.8289475
-0.83160228 1.3354175 1.6257567
-0.80677462 1.2940546 1.3119911
-0.78227502 1.2542776 1.0537832
-0.77009708 1.2338061 0.84788001
-0.76159084 1.2197132 0.66929108
-0.74988741 1.2005124 0.50599957
-0.74209291 1.187121 0.35726887
-0.73373538 1.1737562 0.21721675
-0.81714231 1.3162978 1.4610506
-0.79486185 1.2794229 1.1802962
-0.77462149 1.2463665 0.94795126
-0.76066321 1.2224929 0.75305843
-0.75391418 1.2111844 0.58567923
-0.74260342 1.1925586 0.42955279
-0.73548424 1.1811304 0.28627905
-0.7289269 1.1701542 0.14928794
-0.015743069 0.052385598 4.7540922
-1.1527284 1.9369887 14.329211
-1.3804499 2.2952094 12.900185
-1.0283213 1.6910088 6.3742008
-0.59575987 0.97427356 2.7499266
-0.70894486 1.1558244 2.5521543
-0.88018513 1.4317122 2.5409758
-0.86791682 1.4101188 2.0590723
-0.22383064 0.42077366 8.080924
-0.35710734 0.61469167 6.5870538
-1.3468065 2.2331638 10.078002
-1.0946096 1.8014899 5.7865958
-0.63025516 1.0327463 2.5654364
-0.786322 1.2850308 2.5343843
-0.87053216 1.4204609 2.2808034
-0.84832406 1.3820785 1.8362979
-0.83255923 1.3474139 1.6362704
-0.80634785 1.3034834 1.3182681
-0.7822926 1.2641119 1.0592661
-0.77045029 1.2440189 0.8525176
-0.75977021 1.2263051 0.6711641
-0.74821943 1.2072002 0.50740957
-0.74312311 1.198053 0.35913411
-0.73225874 1.1805422 0.21766382
-0.81645882 1.3255005 1.4677017
-0.79463291 1.2890713 1.1861825
-0.77479142 1.2564013 0.95301759
-0.75877547 1.2290026 0.75515652
-0.75216323 1.2178264 0.58732271
-0.74354577 1.2034135 0.43189743
-0.73395979 1.1879034 0.28696972
-0.73009127 1.1811908 0.149691
-0.015560114 0.052440234 4.7540922
-1.1459601 1.9410006 14.329211
-1.3719079 2.2991395 12.895289
-1.0208702 1.6920316 6.3646564
-0.59438181 0.97968805 2.7591317
-0.70490593 1.1582921 2.5521543
-0.87957793 1.4419831 2.5533745
-0.86800063 1.4213465 2.0705848
-0.22249465 0.42180803 8.0859156
-0.35495952 0.61593443 6.5870538
-1.3473923 2.2518744 10.140915
-1.0892053 1.8067776 5.7912879
-0.6266464 1.03494 2.5654364
-0.78318501 1.2899972 2.5386503
-0.87026477 1.431215 2.2927732
-0.8470211 1.3908223 1.8436482
-0.83344245 1.3594329 1.6467839
-0.80586499 1.3129246 1.3245449
-0.78225112 1.2739615 1.064749
-0.76842237 1.2504749 0.85483634
-0.76034057 1.2368485 0.67491019
-0.74651384 1.2138908 0.50881964
-0.74151123 1.204823 0.36006674
-0.73074359 1.1873323 0.21811089
-0.81572092 1.3347142 1.4743526
-0.79434633 1.2987338 1.1920689
-0.77490073 1.2664524 0.95808399
-0.75922227 1.2393841 0.75935262
-0.75284231 1.2284971 0.59060973
-0.74188089 1.2101455 0.43306974
-0.7323969 1.19468 0.28766042
-0.72857547 1.187991 0.14989254
-0.015368725 0.052451383 4.7490926
-1.1391777 1.9449891 14.329211
-1.3659486 2.3074193 12.914869
-1.0149575 1.6955848 6.3646564
-0.59398049 0.9867785 2.772939
-0.70085853 1.1607455 2.5521543
-0.8803668 1.4546747 2.5699062
-0.86801654 1.4325918 2.0820973
-0.22102091 0.42258209 8.0859156
-0.35280734 0.61716974 6.5870538
-1.3568453 2.2857485 10.271579
-1.0811205 1.8076068 5.7819028
-0.62302995 1.0371211 2.5654364
-0.7800228 1.2949573 2.5429161
-0.87148941 1.4445647 2.3087335
-0.84742063 1.4024756 1.8546739
-0.83425194 1.3714746 1.6572976
-0.80532604 1.3223784 1.3308219
-0.78215021 1.2838264 1.0702319
-0.7686646 1.2607141 0.85947394
-0.76084638 1.2474107 0.67865622
-0.74726927 1.2246792 0.51163971
-0.74242127 1.215789 0.36193198
-0.72918993 1.194126 0.21855797
-0.81492871 1.3439391 1.4810036
-0.79400176 1.3084097 1.1979553
-0.77271223 1.2728345 0.96061713
-0.75724858 1.245905 0.76145065
-0.75100267 1.2351525 0.59225327
-0.74017817 1.2168806 0.43424204
-0.73079574 1.2014602 0.28835109
-0.72961807 1.1990627 0.1502956
-0.015185542 0.052504707 4.7490926
-1.1323816 1.9489536 14.329211
-1.3558236 2.3086612 12.895289
-0.59353703 0.99387819 2.7867467
-0.69680244 1.163185 2.5521543
-0.86804128 1.4456761 2.5492415
-0.86796445 1.4438545 2.0936098
-0.21954449 0.42335102 8.0859156
-0.35065088 0.61839747 6.5870538
-1.3679914 2.3229656 10.416762
-1.0730431 1.8084012 5.7725172
-0.61940593 1.0392895 2.5654364
-0.77549773 1.297672 2.5429161
-0.87108397 1.4553547 2.3207035
-0.84600586 1.4112406 1.8620242
-0.83498728 1.3835382 1.6678112
-0.80473083 1.3318444 1.3370987
-0.78199011 1.2937058 1.0757148
-0.76884478 1.2709701 0.86411154
-0.75888765 1.2540251 0.6805293
-0.74547416 1.2313839 0.51304972
-0.74326366 1.2267758 0.36379722
-0.73017818 1.2051826 0.21945213
-0.81408197 1.3531743 1.4876546
-0.79359943 1.3180991 1.2038416
-0.77271265 1.2829096 0.96568352
-0.75758213 1.2563138 0.76564676
-0.75156498 1.2458533 0.59554029
-0.73843735 1.2236184 0.43541437
-0.72915602 1.2082436 0.28904179
-0.72801024 1.2058792 0.15049712
-0.015010118 0.052600302 4.7540922
-1.1255715 1.9528944 14.329211
-1.6352618 2.8069665 15.641512
-1.013702 1.7206354 6.4314647
-0.59504247 1.0043484 2.8097594
-0.69273794 1.1656102 2.5521543
-0.86010945 1.443862 2.5409758
-0.86784428 1.455134 2.1051223
-0.21806538 0.42411479 8.0859156
-0.34875119 0.62008256 6.5920253
-1.3795279 2.3613732 10.566784
-1.0535944 1.7898279 5.7021255
-0.61466652 1.0395713 2.5609353
-0.77229339 1.3026148 2.5471821
-0.87061357 1.4661592 2.3326735
-0.84627312 1.4229265 1.8730495
-0.8356486 1.3956239 1.6783249
-0.80407935 1.3413223 1.3433758
-0.78177029 1.3035996 1.0811977
-0.7666831 1.2774445 0.86643034
-0.75927824 1.2646158 0.68427533
-0.74611109 1.2422032 0.5158698
-0.74150759 1.233573 0.36472982
-0.72853249 1.2119923 0.21989921
-0.81318051 1.3624201 1.4943056
-0.79313892 1.3278015 1.2097279
-0.77044094 1.2892995 0.96821666
-0.75785232 1.2667403 0.76984292
-0.75206149 1.2565728 0.5988273
-0.73915529 1.2345293 0.43775901
-0.7300216 1.2192791 0.29042313
-0.72636354 1.2126991 0.15069866
-0.014826417 0.052652374 4.7540922
-1.1187478 1.9568115 14.329211
-1.6234161 2.8091309 15.62193
-1.009949 1.7280298 6.4457803
-1.0022967 1.7054306 4.7198071
-0.68744874 1.165958 2.5477653
-0.85076934 1.4395874 2.5285769
-0.86765587 1.4664303 2.1166348
-0.21645305 0.42461595 8.080924
-0.34658456 0.62129617 6.5920253
-1.3927035 2.403152 10.731325
-1.0464699 1.7920045 5.697433
-0.61103398 1.0417105 2.5609353
-0.76641953 1.3030545 2.5429161
-0.87007856 1.4769784 2.3446436
-0.84474635 1.4317117 1.8803998
-0.83441442 1.4046645 1.685334
-0.80536085 1.3541571 1.3527911
-0.78149104 1.3135077 1.0866808
-0.76675189 1.2877253 0.87106794
-0.75723165 1.2712413 0.68614835
-0.74422604 1.2489209 0.51727986
-0.74222916 1.2445917 0.36659506
-0.72684813 1.2188051 0.22034629
-0.81412685 1.3748887 1.504282
-0.79262042 1.3375167 1.2156142
-0.77033234 1.2993975 0.97328311
-0.75574237 1.2732809 0.77194095
-0.75249243 1.2673111 0.60211432
-0.73732382 1.2412808 0.43893132
-0.72829008 1.2260773 0.29111382
-0.72212607 1.2152271 0.15069866
-0.014642536 0.052703805 4.7540922
-1.1122936 1.9613808 14.334151
-1.6120813 2.8121302 15.607244
-1.0286149 1.7741612 6.6032557
-1.0179834 1.7460505 4.8210621
-0.68337452 1.1683505 2.5477653
-0.84289277 1.4376932 2.5203109
-0.86577672 1.4749787 2.1243098
-0.21496953 0.42536891 8.080924
-0.34441373 0.62250215 6.5920253
-1.3911967 2.4199862 10.784558
-1.0687507 1.8449243 5.852294
-0.60739404 1.0438371 2.5609353
-0.76186639 1.3057218 2.5429161
-0.8694784 1.4878114 2.3566139
-0.84488106 1.4434292 1.8914254
-0.83312726 1.4137136 1.6923431
-0.80458474 1.3636647 1.3590679
-0.78115207 1.3234296 1.0921637
-0.76675808 1.298022 0.87570554
-0.75750661 1.281859 0.68989444
-0.74474436 1.25977 0.52009988
-0.74288273 1.2556305 0.3684603
-0.72766072 1.2299068 0.22124045
-0.81310481 1.384161 1.510933
-0.79204357 1.3472441 1.2215005
-0.77016246 1.3095101 0.97834945
-0.75589871 1.2837329 0.77613705
-0.7504608 1.273999 0.6037578
-0.73792183 1.2522223 0.44127598
-0.72651994 1.2328786 0.29180449
-0.7204169 1.2220442 0.15090019
-0.01446597 0.052797582 4.7590923
-1.1054403 1.9652514 14.334151
-1.6067846 2.825707 15.651301
-1.0231599 1.7790351 6.6080279
-1.0069923 1.7411371 4.7980494
-0.67929202 1.1707288 2.5477653
-0.83503991 1.4357616 2.5120449
-0.86546105 1.4863015 2.1358223
-0.21348341 0.4261167 8.080924
-0.34223869 0.62370062 6.5920253
-1.3895893 2.4368391 10.837791
-1.0752 1.8710881 5.9226861
-0.60374665 1.0459509 2.5609353
-0.75599754 1.3061161 2.5386503
-0.86881316 1.4986579 2.3685837
-0.84494418 1.455165 1.902451
-0.83178699 1.4227707 1.6993521
-0.80571818 1.3765427 1.3684834
-0.77864045 1.3297567 1.0949051
-0.76446211 1.3045126 0.87802434
-0.75537193 1.2884948 0.69176745
-0.74276906 1.2665 0.52150995
-0.7434684 1.2666889 0.37032557
-0.72588396 1.2367342 0.22168753
-0.81390786 1.3966689 1.5209095
-0.79140854 1.356984 1.2273868
-0.7699315 1.3196375 0.98341578
-0.75599134 1.2942016 0.78033316
-0.75077403 1.2847649 0.60704482
-0.73599929 1.2589867 0.44244829
-0.72471112 1.2396822 0.29249516
-0.71866882 1.2288641 0.15110172
-0.01427424 0.052804746 4.7540922
-1.0989521 1.9697769 14.33909
-1.5949106 2.8277509 15.631721
-1.0635369 1.8642824 6.9086628
-0.9999364 1.742947 4.7934475
-0.67639595 1.1751686 2.5521543
-0.8286168 1.4362301 2.5079119
-0.86507702 1.4976401 2.1473348
-0.21186683 0.42660049 8.0759325
-0.34005949 0.6248914 6.5920253
-1.3909749 2.4591804 10.915222
-1.0908784 1.9138106 6.0446973
-0.59901041 1.0461628 2.5564339
-0.75013524 1.3064852 2.5343843
-0.86958492 1.5121304 2.3845439
-0.84493554 1.4669188 1.9134763
-0.83218277 1.4349208 1.7098659
-0.80481708 1.386079 1.3747603
-0.77819443 1.339698 1.1003881
-0.76435637 1.3148326 0.88266194
-0.75553089 1.2991388 0.69551355
-0.74316829 1.2773778 0.52433002
-0.74398559 1.2777666 0.3721908
-0.72657406 1.2478677 0.22258168
-0.81463331 1.4091991 1.5308859
-0.7907151 1.3667357 1.2332731
-0.76963896 1.329779 0.98848218
-0.75374454 1.3007596 0.78243119
-0.74865299 1.2914631 0.60868835
-0.73647696 1.2699577 0.44479293
-0.72534806 1.2507721 0.29387653
-0.71688193 1.2356865 0.15130325
-0.01408983 0.052854251 4.7540922
-1.0920696 1.9736007 14.33909
-1.5875154 2.837744 15.656197
-1.0746638 1.8991638 7.0231905
-1.0305612 1.8109517 4.9683433
-0.67228973 1.1775225 2.5521543
-0.82220078 1.4366713 2.5037792
-0.86462426 1.5089941 2.1588473
-0.2103764 0.42733744 8.0759325
-0.33812901 0.62654388 6.5969973
-1.3946815 2.4859467 11.012012
-1.0875882 1.9236159 6.0634685
-0.59535491 1.0482475 2.5564339
-0.74427962 1.3068295 2.5301185
-0.87027305 1.5256262 2.4005039
-0.84485507 1.47869 1.924502
-0.83072543 1.4439993 1.716875
-0.80385906 1.3956256 1.3810372
-0.77768826 1.3496523 1.105871
-0.76418793 1.3251678 0.88729954
-0.75330794 1.3057839 0.69738662
-0.74110264 1.2841189 0.52574003
-0.74689144 1.2931169 0.37498868
-0.7247045 1.2547086 0.22302876
-0.81528115 1.4217514 1.5408626
-0.78996313 1.3764989 1.2391595
-0.76928496 1.3399345 0.99354851
-0.75372291 1.3112524 0.78662729
-0.74884832 1.3022559 0.61197537
-0.7368868 1.2809471 0.44713756
-0.72344685 1.2575889 0.2945672
-0.71754807 1.2468415 0.15170631
-0.013905249 0.052903112 4.7540922
-1.0851737 1.9774008 14.33909
-1.5800699 2.8477201 15.680674
-1.098709 1.9575766 7.2236137
-1.0597625 1.877489 5.1386366
-0.66817534 1.1798621 2.5521543
-0.81718081 1.4395325 2.5037792
-0.86568636 1.5231497 2.1741974
-0.20888343 0.42806917 8.0759325
-0.33593991 0.62772036 6.5969973
-1.3963844 2.5094726 11.094281
-1.076647 1.9198745 6.0400052
-0.59169227 1.0503192 2.5564339
-0.73843074 1.3071487 2.5258524
-0.8708775 1.5391451 2.4164641
-0.84470272 1.4904786 1.9355273
-0.83098221 1.4561826 1.7273885
-0.80477506 1.4085621 1.3904526
-0.7771222 1.3596193 1.1113539
-0.76175702 1.3316722 0.88961834
-0.75335038 1.3164527 0.70113266
-0.74138236 1.2950244 0.5285601
-0.74481505 1.2999785 0.37592128
-0.72279602 1.2615517 0.22347584
-0.81585127 1.4343252 1.5508391
-0.79115218 1.3897862 1.2479889
-0.76886946 1.3501035 0.99861485
-0.75138909 1.3178179 0.78872538
-0.74897724 1.3130655 0.61526239
-0.73722899 1.291955 0.4494822
-0.72396123 1.2687088 0.29594857
-0.71566826 1.2536775 0.15190785
-0.013713605 0.052908242 4.7490926
-1.0782647 1.9811767 14.33909
-1.573065 2.8585708 15.710045
-1.1187295 2.0096586 7.400177
-1.0369792 1.8521966 5.0603938
-0.66405272 1.1821873 2.5521543
-0.81215096 1.4423764 2.5037792
-0.86666012 1.537331 2.1895473
-0.20738792 0.42879573 8.0759325
-0.33399633 0.62936026 6.6019688
-1.3991543 2.5352421 11.186231
-1.0732937 1.9296536 6.0587759
-0.58802235 1.0523782 2.5564339
-0.73386341 1.3097183 2.5258524
-0.87139809 1.5526868 2.4324241
-0.84447831 1.5022839 1.946553
-0.83116412 1.4683853 1.7379023
-0.80369139 1.4181354 1.3967296
-0.77649599 1.369599 1.1168369
-0.7614761 1.3420289 0.89425594
-0.75332743 1.3271378 0.70487875
-0.73922604 1.3017758 0.52997011
-0.74269986 1.3068413 0.37685391
-0.7233091 1.2727263 0.22437
-0.81450886 1.4436682 1.5574901
-0.79027069 1.3995789 1.2538751
-0.76839226 1.360286 1.0036812
-0.75125283 1.3283337 0.79292148
-0.74903989 1.3238919 0.61854941
-0.73510891 1.2987505 0.45065451
-0.7219674 1.2755377 0.29663923
-0.71621102 1.2648628 0.15231091
-0.013528836 0.052955791 4.7490926
-1.0709736 1.9842447 14.334151
-1.565028 2.8676195 15.729625
-1.1081008 2.0070174 7.376317
-1.0020572 1.8045636 4.922318
-0.65992206 1.1844981 2.5521543
-0.80848312 1.4476594 2.5079119
-0.8659811 1.5487397 2.2010598
-0.20601413 0.42977762 8.080924
-0.33204532 0.63099408 6.6069398
-1.4005545 2.5588555 11.268501
-1.0698854 1.9394326 6.0775471
-0.58434528 1.0544243 2.5564339
-0.72802037 1.3099922 2.5215867
-0.87036932 1.5636178 2.4443944
-0.84418166 1.5141058 1.9575783
-0.83127081 1.4806068 1.7484158
-0.8044579 1.4311112 1.4061449
-0.77580941 1.3795904 1.1223198
-0.76113212 1.3523997 0.89889359
-0.75323904 1.3378386 0.70862478
-0.73938584 1.3127077 0.53279018
-0.74295801 1.3179841 0.37871915
-0.72130752 1.2795817 0.22481708
-0.81493431 1.4562776 1.5674665
-0.79130548 1.4129089 1.2627047
-0.76785332 1.3704814 1.0087476
-0.75105232 1.3388647 0.79711759
-0.74903601 1.3347347 0.62183642
-0.73532987 1.3097855 0.45299914
-0.72235906 1.2866864 0.29802063
-0.71423781 1.271711 0.15251243
-0.013343903 0.053002693 4.7490926
-1.0640408 1.9879711 14.334151
-1.5584008 2.8793335 15.763891
-1.1713377 2.1391866 7.8439717
-1.0296775 1.8696587 5.0880089
-0.65578341 1.1867945 2.5521543
-0.80342495 1.4504726 2.5079119
-0.86678737 1.5629654 2.2164099
-0.20451267 0.43049413 8.080924
-0.32984072 0.63214934 6.6069398
-1.4006077 2.5803001 11.341092
-1.0639371 1.9446692 6.0822396
-0.58066106 1.0564576 2.5564339
-0.72344327 1.3125256 2.5215867
-0.870731 1.5771985 2.4603543
-0.8438127 1.5259438 1.9686038
-0.83130229 1.4928467 1.7589295
-0.80324817 1.4407099 1.4124217
-0.77506256 1.3895938 1.1278027
-0.76072496 1.3627844 0.90353119
-0.75308502 1.3485551 0.71237087
-0.73713869 1.3194684 0.53420019
-0.74075007 1.3248571 0.37965176
-0.72169709 1.2907851 0.22571123
-0.81346971 1.4656427 1.5741175
-0.79029405 1.4227294 1.268591
-0.76725256 1.3806897 1.013814
-0.75078732 1.3494101 0.80131364
-0.7489655 1.3455935 0.62512344
-0.733118 1.3165908 0.45417145
-0.72268152 1.2978531 0.29940197
-0.71465683 1.2829254 0.15291549
-0.013158808 0.053048946 4.7490926
-1.0567307 1.9909868 14.329211
-1.548822 2.8856533 15.768788
-1.2080233 2.2245946 8.1398344
-1.0690284 1.9572583 5.3135328
-0.65163672 1.1890763 2.5521543
-0.79835695 1.4532683 2.5079119
-0.86596018 1.5744071 2.2279224
-0.20300873 0.43120539 8.080924
-0.32787678 0.63377047 6.6119113
-1.4023153 2.6050966 11.428203
-1.0653714 1.9635397 6.1291676
-0.5769698 1.0584781 2.5564339
-0.71885723 1.3150429 2.5215867
-0.86956137 1.5881575 2.4723246
-0.84337139 1.5377976 1.9796295
-0.8312583 1.5051048 1.769443
-0.80386466 1.4537239 1.4218372
-0.77425528 1.3996086 1.1332856
-0.76025444 1.3731824 0.90816879
-0.75286537 1.3592864 0.71611691
-0.73717821 1.3304254 0.53702027
-0.73850322 1.3317307 0.38058439
-0.71960217 1.2976516 0.22615832
-0.81375015 1.4782864 1.584094
-0.79117405 1.4361005 1.2774205
-0.76658976 1.3909104 1.0188802
-0.7526505 1.3639438 0.80760783
-0.74654609 1.3523337 0.62676698
-0.73321736 1.3276516 0.45651609
-0.72293478 1.3090378 0.30078334
-0.71500623 1.294158 0.15331855
-0.012973553 0.053094555 4.7490926
-1.0497745 1.9946632 14.329211
-1.5373048 2.8883452 15.754102
-1.2356343 2.2945125 8.3784332
-1.0621898 1.960978 5.3135328
-0.6474821 1.1913437 2.5521543
-0.79327923 1.4560462 2.5079119
-0.86352885 1.583048 2.2355974
-0.20150229 0.43191138 8.080924
-0.32566249 0.63491106 6.6119113
-1.3973562 2.6177378 11.462078
-1.064234 1.9778845 6.1620164
-0.57741177 1.0681461 2.5744388
-0.71426249 1.3175441 2.5215867
-0.86976355 1.6017755 2.4882846
-0.84285748 1.5496665 1.9906548
-0.82942575 1.5142529 1.7764521
-0.80439997 1.4667594 1.4312525
-0.77539867 1.4133006 1.14151
-0.75972062 1.3835939 0.91280639
-0.75257993 1.3700327 0.719863
-0.73715025 1.3413988 0.53984034
-0.73858464 1.3429089 0.38244963
-0.71986789 1.3088827 0.22705248
-0.81216305 1.4876723 1.5907451
-0.79003221 1.4459476 1.2833068
-0.76586491 1.401143 1.0239466
-0.75224251 1.3745254 0.81180394
-0.74635637 1.3632154 0.630054
-0.73091346 1.334466 0.45768842
-0.72073984 1.3158966 0.30147403
-0.71528584 1.3054087 0.15372162
-0.012794279 0.053182721 4.7540922
-1.0431648 1.9990045 14.334151
-1.5262628 2.8918929 15.744311
-1.2430855 2.3277805 8.4834175
-1.0423965 1.940578 5.2490973
-0.64331961 1.1935966 2.5521543
-0.7895295 1.4612824 2.5120449
-0.86257261 1.5945102 2.2471099
-0.19987282 0.43234983 8.0759325
-0.32392693 0.6369946 6.6218548
-1.4082013 2.6603725 11.626618
-1.0605725 1.9876776 6.1807876
-0.57779324 1.07783 2.5924437
-0.71089393 1.3223265 2.5258524
-0.86845261 1.612761 2.5002546
-0.84388024 1.5645347 2.0053556
-0.82924163 1.5265404 1.7869658
-0.80299437 1.4763969 1.4375293
-0.77645582 1.4270176 1.1497345
-0.76124179 1.3979086 0.91976279
-0.7522285 1.3807933 0.72360903
-0.73705453 1.3523881 0.54266042
-0.74094909 1.3584161 0.38524747
-0.72006392 1.3201313 0.22794664
-0.81229794 1.5003486 1.6007215
-0.79075682 1.4593581 1.2921362
-0.76713216 1.4151773 1.0315461
-0.75176966 1.3851206 0.81600004
-0.74384654 1.3699622 0.63169748
-0.73089093 1.3455516 0.46003303
-0.72086948 1.3271075 0.30285537
-0.71311015 1.3122872 0.15392315
-0.012608559 0.053227056 4.7540922
-1.0361806 2.0026336 14.334151
-1.5152148 2.8953984 15.734521
-1.2433342 2.3479359 8.5406809
-1.0723519 2.0131781 5.433198
-0.63914925 1.1958349 2.5521543
-0.78575271 1.4665098 2.5161779
-0.86154693 1.605985 2.2586224
-0.19836242 0.43304488 8.0759325
-0.3212221 0.63716918 6.6119113
-1.4105883 2.6875322 11.723407
-1.0576626 1.9989945 6.2042518
-0.57811409 1.0875295 2.6104486
-0.70627379 1.3247999 2.5258524
-0.86849487 1.626415 2.5162146
-0.84321058 1.5764391 2.016381
-0.82898176 1.5388448 1.7974794
-0.803379 1.4894685 1.4469448
-0.77544105 1.4370791 1.1552174
-0.76056725 1.4083527 0.92440039
-0.75181109 1.3915682 0.72735512
-0.73689103 1.3633928 0.54548049
-0.73853993 1.3653148 0.3861801
-0.72019017 1.3313972 0.2288408
-0.81412029 1.5163335 1.6140234
-0.78948414 1.4692305 1.2980225
-0.7662698 1.4254405 1.0366125
-0.75123215 1.3957293 0.82019615
-0.74353737 1.3808659 0.63498449
-0.7284947 1.352374 0.46120536
-0.72092956 1.3383353 0.30423674
-0.71326518 1.3235644 0.15432622
-0.012422686 0.053270742 4.7540922
-1.0288293 2.005547 14.329211
-1.5046297 2.899766 15.729625
-1.2420696 2.365478 8.5884008
-1.0790036 2.0428221 5.5022359
-0.63609248 1.2001748 2.5565434
-0.78062886 1.4692436 2.5161779
-0.86045158 1.6174721 2.2701349
-0.19684961 0.43373466 8.0759325
-0.32066208 0.64162529 6.6467118
-1.416864 2.7225459 11.854072
-1.0538849 2.0087869 6.2230225
-0.57938921 1.0991702 2.6329546
-0.70286387 1.329563 2.5301185
-0.86845231 1.6400887 2.5321748
-0.84405643 1.5913529 2.0310817
-0.82864606 1.5511659 1.8079931
-0.80368197 1.5025603 1.4563601
-0.77633816 1.4508377 1.1634418
-0.75982904 1.4188093 0.92903793
-0.75132763 1.4023569 0.73110116
-0.73665971 1.3744129 0.54830056
-0.73841369 1.3765422 0.38804534
-0.72024643 1.34268 0.22973496
-0.8140862 1.5290536 1.6240001
-0.79005301 1.4826791 1.3068521
-0.76534498 1.4357148 1.0416789
-0.75062954 1.406351 0.82439226
-0.74316114 1.3917841 0.63827151
-0.72834992 1.3634833 0.46355
-0.72091997 1.3495795 0.30561811
-0.71335006 1.3348585 0.15472928
-0.01223666 0.053313781 4.7540922
-1.0218223 2.0091259 14.329211
-1.4935672 2.9031899 15.719835
-1.2448329 2.3909838 8.664753
-1.0718663 2.0465763 5.5022359
-0.63189924 1.2023879 2.5565434
-0.77811855 1.476939 2.5244439
-0.85928643 1.6289707 2.2816474
-0.1953344 0.43441916 8.0759325
-0.31700236 0.63987392 6.6168833
-1.4246415 2.760987 11.999254
-1.0468664 2.0124533 6.2230225
-0.5795818 1.1089035 2.6509595
-0.69821852 1.3320084 2.5301185
-0.86832488 1.6537819 2.548135
-0.84323037 1.6032909 2.0421071
-0.82823431 1.5635033 1.8185068
-0.80390346 1.5156724 1.4657755
-0.77518868 1.4609261 1.1689247
-0.76110476 1.4331901 0.93599433
-0.75077796 1.413159 0.73484725
-0.73636031 1.385448 0.55112064
-0.73821801 1.3877851 0.38991058
-0.72023267 1.3539792 0.2306291
-0.81745952 1.5483955 1.6406276
-0.7886492 1.4925755 1.3127384
-0.7663722 1.4498111 1.0492785
-0.74996185 1.4169852 0.82858837
-0.74271762 1.4027162 0.64155853
-0.72813642 1.3746079 0.46589461
-0.72084063 1.36084 0.30699944
-0.71336472 1.3461692 0.15513234
-0.012050485 0.053356171 4.7540922
-1.0148029 2.0126805 14.329211
-1.4829614 2.9074786 15.71494
-1.2467487 2.4152112 8.7363319
-1.0755192 2.0711114 5.5574665
-0.6276983 1.2045864 2.5565434
-0.77816981 1.4896232 2.5409758
-0.85805142 1.6404811 2.29316
-0.1938168 0.43509835 8.0759325
-0.31335875 0.63810486 6.5870538
-1.4224365 2.7804911 12.062166
-1.0493265 2.0345001 6.279336
-0.57971346 1.1186515 2.6689644
-0.69356471 1.3344375 2.5301185
-0.86811221 1.6674941 2.564095
-0.84233123 1.6152428 2.0531328
-0.82774651 1.5758564 1.8290204
-0.80404305 1.5288042 1.475191
-0.77397829 1.4710242 1.1744076
-0.76022518 1.4436772 0.94063193
-0.75016189 1.4239743 0.73859328
-0.73599279 1.3964975 0.55394071
-0.73566103 1.3946983 0.39084318
-0.72014874 1.3652946 0.23152326
-0.81897587 1.5644715 1.6539296
-0.78718585 1.5024801 1.3186247
-0.7653091 1.4601136 1.0543448
-0.74922907 1.427632 0.83278447
-0.74220687 1.4136622 0.64484555
-0.72785401 1.3857474 0.46823925
-0.72069144 1.3721161 0.30838081
-0.71330911 1.3574963 0.1555354
-0.011858779 0.05335461 4.7490926
-1.0074239 2.0155156 14.324272
-1.4723439 2.9117286 15.710045
-1.2478304 2.4381523 8.8031406
-1.0682831 2.0748529 5.5574665
-0.62239045 1.2046423 2.5521543
-0.77814192 1.5023255 2.5575075
-0.85674644 1.6520025 2.3046725
-0.19229685 0.43577224 8.0759325
-0.36215803 0.74419069 7.6758137
-1.4275031 2.8145871 12.187992
-1.0390762 2.0320046 6.2605648
-0.58077878 1.1303502 2.6914704
-0.68890244 1.3368503 2.5301185
-0.86228627 1.6705142 2.564095
-0.84291577 1.630219 2.0678334
-0.82718259 1.5882255 1.839534
-0.80410063 1.5419554 1.4846063
-0.77270675 1.4811314 1.1798905
-0.75723147 1.450249 0.94295073
-0.74733305 1.4306933 0.7404663
-0.73555708 1.4075612 0.55676073
-0.73534131 1.4059634 0.39270842
-0.71768653 1.3722129 0.23197034
-0.81866986 1.5772626 1.663906
-0.78752619 1.5159796 1.3274543
-0.76617122 1.4742515 1.0619444
-0.74843109 1.4382907 0.83698058
-0.74162865 1.4246217 0.64813256
-0.72750276 1.3969018 0.47058392
-0.72047222 1.3834076 0.30976218
-0.7131831 1.3688393 0.15593846
-0.01166723 0.053352363 4.7440929
-1.0003823 2.0190198 14.324272
-1.461715 2.91594 15.70515
-1.250793 2.4651232 8.884264
-1.0521525 2.0611684 5.5114408
-0.61818171 1.2068075 2.5521543
-0.77803469 1.5150458 2.5740392
-0.85683715 1.6663851 2.3200223
-0.19077455 0.43644083 8.0759325
-0.36626676 0.75937742 7.8199873
-1.4261384 2.8363981 12.260583
-1.025735 2.0233057 6.2230225
-0.58078146 1.1401299 2.7094753
-0.68304527 1.3369243 2.5258524
-0.85370451 1.6681491 2.5561152
-0.84340602 1.6452188 2.0825341
-0.82817841 1.6037781 1.8535522
-0.80407625 1.5551255 1.4940217
-0.77329516 1.4949619 1.188115
-0.75623763 1.4607511 0.94758832
-0.7465986 1.4415265 0.74421245
-0.73505306 1.4186387 0.5595808
-0.73269051 1.4128827 0.39364108
-0.71747732 1.3835516 0.2328645
-0.8199929 1.5933906 1.6772081
-0.78593117 1.5259063 1.3333406
-0.76496935 1.4845811 1.0670106
-0.74964863 1.4529945 0.84327471
-0.74098289 1.4355942 0.65141958
-0.72708243 1.4080706 0.47292855
-0.72018284 1.3947142 0.31114352
-0.71069354 1.3757591 0.15613998
-0.011475842 0.053349428 4.7390928
-0.99332851 2.0224996 14.324272
-1.4510745 2.9201128 15.700254
-1.2495582 2.484143 8.9367552
-1.042305 2.0595989 5.4976335
-0.61396539 1.208958 2.5521543
-0.77657139 1.5252757 2.5864379
-0.85683769 1.6807885 2.3353724
-0.18924992 0.43710411 8.0759325
-0.36636966 0.76642382 7.8796449
-1.4212748 2.8514841 12.304138
-1.0155668 2.0207059 6.2042518
-0.58072293 1.1499234 2.7274802
-0.67837441 1.3393005 2.5258524
-0.84378648 1.6630572 2.5441449
-0.8422659 1.6572198 2.0935595
-0.82745051 1.6161826 1.8640658
-0.80396944 1.5683138 1.5034369
-0.77188814 1.5050933 1.1935979
-0.75517964 1.471264 0.95222592
-0.7457974 1.452372 0.74795848
-0.73228854 1.4254628 0.56099087
-0.73224646 1.4241688 0.39550632
-0.71492058 1.3904765 0.23331158
-0.81951648 1.6062211 1.6871846
-0.78611439 1.5394398 1.34217
-0.76566577 1.498759 1.0746102
-0.74870574 1.4636836 0.84747082
-0.74026948 1.4465793 0.6547066
-0.72659284 1.4192531 0.47527319
-0.71982336 1.4060357 0.31252488
-0.71044177 1.3871248 0.15654305
-0.011289547 0.053389162 4.7390928
-0.9866026 2.0266533 14.329211
-1.4408726 2.9251602 15.700254
-1.2542002 2.5152073 9.032196
-1.0316054 2.0562398 5.4792233
-0.60974163 1.2110938 2.5521543
-0.77631408 1.538026 2.6029699
-0.85819381 1.6980727 2.3545601
-0.1878362 0.43802759 8.080924
-0.36688372 0.77444386 7.9492459
-1.41855 2.8710783 12.36705
-1.0154321 2.0381403 6.2464867
-0.58255184 1.1636237 2.7544875
-0.67369521 1.3416603 2.5258524
-0.8339144 1.6579165 2.5321748
-0.84105206 1.6692325 2.1045849
-0.82664615 1.6286013 1.8745794
-0.8037805 1.5815206 1.5128524
-0.77231491 1.5189605 1.2018223
-0.75405741 1.4817872 0.95686358
-0.74492955 1.4632291 0.75170451
-0.73166239 1.4365594 0.56381088
-0.72950161 1.4310926 0.39643893
-0.7123242 1.3974004 0.23375866
-0.81727523 1.6157357 1.6938356
-0.78621274 1.5529932 1.3509996
-0.76432478 1.509114 1.0796765
-0.74769729 1.4743838 0.85166693
-0.73948848 1.457577 0.65799361
-0.72603405 1.4304494 0.47761783
-0.71939349 1.4173715 0.31390625
-0.71011925 1.3985054 0.15694611
-0.011103115 0.053428248 4.7390928
-0.97952229 2.0300848 14.329211
-1.4302064 2.9292569 15.695358
-1.2566563 2.5423193 9.1133194
-1.0261613 2.0633268 5.4884281
-0.60551035 1.2132148 2.5521543
-0.77471805 1.5482762 2.6153688
-0.85800391 1.712521 2.36991
-0.18630606 0.43868059 8.080924
-0.36621478 0.78006357 7.9939895
-1.412389 2.8839149 12.400927
-1.0388737 2.1035647 6.4341969
-0.58042169 1.1695503 2.7634897
-0.66900784 1.3440038 2.5258524
-0.82408857 1.6527272 2.5202048
-0.84127939 1.6842898 2.1192856
-0.82736796 1.6442198 1.8885976
-0.803509 1.5947447 1.5222677
-0.77265418 1.532849 1.2100466
-0.75486612 1.4962754 0.96381998
-0.74399495 1.4740977 0.75545061
-0.7309677 1.447669 0.56663096
-0.72671729 1.4380145 0.39737156
-0.71193427 1.4087676 0.23465282
-0.81665093 1.6285915 1.703812
-0.78622597 1.566566 1.3598289
-0.7629208 1.5194777 1.0847429
-0.74662328 1.4850945 0.85586303
-0.73651785 1.4643681 0.65963709
-0.72540587 1.441659 0.47996244
-0.71889317 1.4287213 0.31528762
-0.70747954 1.4054379 0.15714765
-0.010916549 0.053466674 4.7390928
-0.97242999 2.0334916 14.329211
-1.4204161 2.935148 15.700254
-1.2628783 2.5775216 9.2230749
-0.60127175 1.2153209 2.5521543
-0.77055913 1.553492 2.6195016
-0.85914922 1.7298591 2.3890977
-0.18477364 0.43932825 8.080924
-0.36348963 0.78133714 7.9939895
-1.4132905 2.9114435 12.497715
-1.0497322 2.1443775 6.546824
-0.57633567 1.1715691 2.7634897
-0.66431236 1.3463309 2.5258524
-0.81564432 1.6501912 2.5122247
-0.83990759 1.6963308 2.1303113
-0.82639903 1.6566718 1.8991114
-0.80315495 1.6079863 1.5316831
-0.77290595 1.5467582 1.2182711
-0.75360131 1.5068251 0.96845758
-0.74506789 1.4891237 0.76106972
-0.73020428 1.4587911 0.56945103
-0.72169322 1.4405426 0.39737156
-0.70924306 1.4156966 0.2350999
-0.81594694 1.6414629 1.7137885
-0.78615403 1.5801575 1.3686585
-0.76337457 1.5337093 1.0923425
-0.74750787 1.4998779 0.86215717
-0.73561579 1.4753821 0.66292417
-0.7247082 1.4528813 0.48230708
-0.71832246 1.4400849 0.31666899
-0.70703077 1.4168395 0.15755071
-0.010729848 0.053504456 4.7390928
-0.96532583 2.0368736 14.329211
-1.410162 2.9400883 15.700254
-1.2669138 2.6087697 9.3185148
-1.0640484 2.177516 5.7691827
-0.59702587 1.2174125 2.5521543
-0.76389027 1.5536469 2.6153688
-0.86018372 1.7472259 2.4082851
-0.1833494 0.44023728 8.0859156
-0.36120588 0.78356963 8.003933
-1.4123825 2.9356153 12.579985
-1.124343 2.3172624 7.0583348
-0.65960872 1.3486415 2.5258524
-0.80722779 1.6476163 2.5042446
-0.83995557 1.7114258 2.1450119
-0.82535309 1.6691366 1.9096249
-0.80099112 1.6177564 1.5379601
-0.77306986 1.5606877 1.2264955
-0.75423968 1.5213531 0.97541398
-0.743985 1.5000217 0.76481575
-0.72937208 1.4699254 0.57227111
-0.71884537 1.4474525 0.39830416
-0.70872712 1.4270842 0.23599406
-0.8151629 1.654349 1.7237651
-0.78599674 1.5937678 1.377488
-0.76183087 1.5440964 1.0974088
-0.74628812 1.5106162 0.86635327
-0.73464584 1.4864078 0.66621119
-0.72394103 1.4641165 0.48465171
-0.71987593 1.4559007 0.31874102
-0.70651102 1.4282548 0.15795377
-0.010543018 0.053541586 4.7390928
-0.95820999 2.0402308 14.329211
-1.3950827 2.9348769 15.646406
-1.2707461 2.6400769 9.4139538
-1.0598471 2.1882501 5.7875924
-0.59277266 1.219489 2.5521543
-0.75476426 1.548715 2.6029699
-0.86110753 1.7646208 2.4274726
-0.18181157 0.44087464 8.0859156
-0.35891095 0.78579569 8.013875
-1.4107817 2.9586813 12.657415
-1.1424208 2.3756058 7.2225819
-1.0076112 2.0850534 4.8520532
-0.65489709 1.3509358 2.5258524
-0.80015546 1.6477134 2.5002546
-0.83842528 1.7234932 2.1560371
-0.82423013 1.6816145 1.9201386
-0.8004837 1.6310252 1.5473754
-0.77314585 1.5746369 1.2347199
-0.75478566 1.5359038 0.98237038
-0.74488038 1.5150905 0.77043486
-0.72847104 1.4810716 0.57509118
-0.71595794 1.4543601 0.3992368
-0.70814025 1.4384853 0.23688821
-0.81593734 1.6706045 1.7370671
-0.78575379 1.6073958 1.3863175
-0.76211768 1.5583638 1.1050084
-0.74500245 1.5213641 0.87054938
-0.73360777 1.4974443 0.66949821
-0.72310424 1.4753637 0.48699635
-0.71914828 1.467298 0.32012239
-0.70372063 1.4351982 0.15815529
-0.010356058 0.05357806 4.7390928
-0.95108241 2.0435631 14.329211
-1.3856972 2.941571 15.656197
-1.2743753 2.6714425 9.5093937
-1.0784087 2.246536 5.9302707
-0.58851224 1.2215508 2.5521543
-0.745682 1.5437385 2.5905712
-0.85912919 1.7762723 2.4389851
-0.18016295 0.44123909 8.080924
-0.3566049 0.78801525 8.023819
-1.410111 2.984045 12.744525
-1.1511961 2.4154093 7.3305159
-1.0022075 2.0924847 4.8610559
-0.65017742 1.3532135 2.5258524
-0.79309225 1.6477813 2.4962647
-0.83829331 1.7386245 2.170738
-0.82458848 1.6973125 1.9341568
-0.79989326 1.6443099 1.5567907
-0.77130407 1.5848458 1.2402028
-0.75329936 1.5464941 0.98700798
-0.74364883 1.5260162 0.77418089
-0.72750098 1.4922293 0.5779112
-0.71518528 1.4656799 0.40110204
-0.70748246 1.4498996 0.23778237
-0.81498122 1.6835245 1.7470435
-0.78542536 1.6210415 1.395147
-0.76231408 1.5726521 1.112608
-0.74563253 1.5362045 0.87684357
-0.73456419 1.5127394 0.6744287
-0.72219759 1.4866229 0.48934099
-0.72051364 1.4831623 0.32219443
-0.70307422 1.4466325 0.15855835
-0.010168972 0.053613883 4.7390928
-0.94394326 2.0468707 14.329211
-1.2765251 2.7001665 9.5952902
-1.0638466 2.2361729 5.8934503
-0.58424467 1.2235975 2.5521543
-0.73664373 1.5387173 2.5781722
-0.85707992 1.7879316 2.4504976
-0.17862165 0.4418653 8.080924
-0.35406989 0.78974175 8.0287905
-1.4066151 3.0037477 12.807438
-1.1471794 2.4287753 7.3586721
-1.0004977 2.1077704 4.888063
-0.64544988 1.3554748 2.5258524
-0.78733557 1.6505396 2.4962647
-0.8380658 1.7537756 2.1854386
-0.82484704 1.7130333 1.948175
-0.80091029 1.6611164 1.5693445
-0.77121711 1.5988271 1.2484273
-0.75367421 1.5610819 0.99396437
-0.74436617 1.5411264 0.7798
-0.72646183 1.5033982 0.58073127
-0.71434224 1.4770118 0.40296727
-0.70892173 1.4658098 0.23912361
-0.81555998 1.6998248 1.7603455
-0.78501099 1.6347042 1.4039763
-0.76241994 1.5869604 1.1202074
-0.74420059 1.5469778 0.88103968
-0.73337489 1.5238045 0.67771572
-0.72122115 1.4978937 0.4916856
-0.71962857 1.494592 0.32357576
-0.70235646 1.4580801 0.15896143
-0.009977892 0.05360559 4.7340932
-0.93679255 2.0501533 14.329211
-1.2791229 2.730289 9.6859579
-1.0485368 2.2239683 5.8520274
-0.57996994 1.2256296 2.5521543
-0.72764975 1.5336521 2.5657735
-0.85358435 1.7967027 2.4581726
-0.17707817 0.44248611 8.080924
-0.35152712 0.79146016 8.033761
-1.3987668 3.0143404 12.831635
-1.1540556 2.4655874 7.4572201
-1.0135183 2.1545882 4.9870896
-0.64071441 1.3577195 2.5258524
-0.7815693 1.653278 2.4962647
-0.83774269 1.7689462 2.2001393
-0.82500589 1.7287763 1.9621931
-0.80014145 1.6744379 1.57876
-0.77104175 1.6128269 1.2566516
-0.75395626 1.575691 1.0009208
-0.74298543 1.5520782 0.78354609
-0.72535354 1.5145779 0.58355141
-0.71342874 1.4883556 0.40483251
-0.70810586 1.477257 0.24001777
-0.81443149 1.7127774 1.7703221
-0.78624779 1.6520334 1.415749
-0.76058203 1.5973963 1.1252737
-0.74465561 1.5618563 0.88733381
-0.73211724 1.5348796 0.68100274
-0.72017479 1.5091757 0.49403024
-0.71867245 1.5060334 0.32495713
-0.70156735 1.4695398 0.15936449
-0.009790713 0.053640094 4.7340932
-0.92931014 2.0527027 14.324272
-1.2802688 2.7577546 9.7670813
-1.1093991 2.3745282 6.2340374
-0.5767048 1.2298149 2.5565434
-0.71750283 1.5259962 2.5492415
-0.85140318 1.8083712 2.4696853
-0.17553252 0.44310153 8.080924
-0.34876227 0.79268241 8.033761
-1.3924366 3.0283413 12.870351
-1.1519762 2.4836903 7.499455
-1.0188667 2.1857367 5.0501065
-0.63597125 1.3599478 2.5258524
-0.77579355 1.6559961 2.4962647
-0.83732373 1.7841357 2.2148399
-0.8250649 1.7445414 1.9762113
-0.79928923 1.6877741 1.5881753
-0.77077806 1.626845 1.264876
-0.75224751 1.5863185 1.0055584
-0.74352425 1.5672278 0.78916514
-0.72623289 1.5301018 0.58778149
-0.7124446 1.4997109 0.40669775
-0.70935559 1.4932144 0.24135901
-0.81481391 1.72912 1.7836241
-0.785649 1.6657355 1.4245785
-0.7605201 1.6117374 1.1328733
-0.74307686 1.5726532 0.89152992
-0.73280919 1.5502335 0.68593329
-0.71905833 1.5204684 0.49637488
-0.71764523 1.5174862 0.3263385
-0.70070666 1.4810117 0.15976755
-0.0096034147 0.053673942 4.7340932
-0.92213917 2.0559342 14.324272
-1.1192831 2.4646227 13.037251
-1.2812384 2.7852607 9.8482046
-1.1035657 2.3837049 6.2478452
-0.5724085 1.2318206 2.5565434
-0.70622981 1.5157374 2.5285769
-0.84779578 1.8171415 2.4773602
-0.17398474 0.44371155 8.080924
-0.34599319 0.79389495 8.033761
-1.380815 3.0308952 12.860671
-1.1677983 2.5410097 7.659009
-1.0331374 2.236712 5.1581359
-0.63122022 1.3621595 2.5258524
-0.77127695 1.6614271 2.5002546
-0.83680898 1.7993437 2.2295406
-0.82502371 1.7603276 1.9902295
-0.80000716 1.7046481 1.6007291
-0.77220291 1.6446657 1.275842
-0.75235772 1.6009622 1.0125147
-0.74199396 1.5782046 0.79291129
-0.72497094 1.5413094 0.59060156
-0.71138996 1.5110774 0.40856299
-0.7083813 1.5046927 0.24225317
-0.81351238 1.742103 1.7936004
-0.78667539 1.683115 1.4363512
-0.75854129 1.6221923 1.1379397
-0.74143177 1.5834579 0.89572603
-0.73139966 1.5613344 0.68922031
-0.71787184 1.5317715 0.49871951
-0.71654677 1.5289502 0.32771987
-0.69977432 1.4924954 0.16017061
-0.0094159991 0.053707138 4.7340932
-0.91464162 2.0584304 14.319333
-1.1127616 2.4731576 13.061727
-1.2820314 2.8128071 9.929328
-1.0993109 2.3964214 6.2708578
-0.5681051 1.2338111 2.5565434
-0.69621682 1.5079738 2.5120449
-0.84413755 1.8259088 2.4850352
-0.17243484 0.44431615 8.080924
-0.34321985 0.79509783 8.033761
-1.3748804 3.0460081 12.904226
-1.182519 2.5968986 7.81387
-0.62646157 1.3643546 2.5258524
-0.76673198 1.6668468 2.5042446
-0.83619815 1.8145698 2.2442412
-0.82488233 1.7761347 2.0042477
-0.79897588 1.7180185 1.6101445
-0.77174872 1.6587248 1.2840662
-0.75237483 1.6156259 1.0194712
-0.74039596 1.5891894 0.79665732
-0.72566599 1.5568743 0.59483165
-0.71234131 1.5269064 0.41136083
-0.70733541 1.5161822 0.24314731
-0.81213009 1.755098 1.8035771
-0.78589123 1.6968539 1.4451805
-0.75831097 1.6365644 1.1455393
-0.73972028 1.5942702 0.89992213
-0.72992152 1.5724443 0.69250727
-0.71661514 1.5430852 0.50106418
-0.71537691 1.5404249 0.3291012
-0.69877046 1.5039907 0.16057368
-0.0092284689 0.053739678 4.7340932
-0.90745074 2.0616105 14.319333
-1.102464 2.4733067 13.042146
-1.2795763 2.8335907 9.9865923
-1.0610317 2.3344362 6.100564
-0.56379485 1.2357867 2.5565434
-0.69094878 1.5103948 2.5120449
-0.84042835 1.8346723 2.4927104
-0.17088284 0.44491535 8.080924
-0.34044236 0.79629111 8.033761
-1.3647527 3.0519364 12.909066
-1.1848004 2.626179 7.8889542
-0.62169528 1.366533 2.5258524
-0.76340806 1.674997 2.5122247
-0.83549112 1.8298132 2.2589419
-0.8231498 1.7887224 2.0147614
-0.79948974 1.7349372 1.6226983
-0.77120584 1.6728007 1.2922907
-0.75229865 1.6303091 1.0264276
-0.73873031 1.6001824 0.80040342
-0.72424984 1.568108 0.59765172
-0.71112955 1.5383015 0.41322607
-0.70621789 1.5276827 0.24404147
-0.81066698 1.7681044 1.8135536
-0.78502083 1.7106079 1.4540101
-0.75798953 1.6509544 1.1531388
-0.73983806 1.6092135 0.90621626
-0.73034793 1.587853 0.69743782
-0.71732002 1.5588237 0.50458109
-0.71206558 1.5474112 0.3297919
-0.69769466 1.5154969 0.16097674
-0.009040826 0.053771563 4.7340932
-0.89931756 2.0626287 14.304515
-1.0938239 2.4771399 13.042146
-1.2763823 2.8530288 10.039084
-1.0681163 2.3719723 6.1880121
-0.55750507 1.2333822 2.5477653
-0.68567234 1.5127975 2.5120449
-0.83666825 1.8434322 2.5003853
-0.16932875 0.44550914 8.080924
-0.3376607 0.79747456 8.033761
-1.5536385 3.5071986 14.80612
-1.1791465 2.6381762 7.9124188
-1.1746843 2.6147788 5.99086
-0.617993 1.3710725 2.5301185
-0.76003659 1.6831441 2.5202048
-0.83468783 1.8450739 2.2736425
-0.82281888 1.8045645 2.0287795
-0.79989511 1.7518803 1.6352521
-0.77057397 1.6868927 1.3005152
-0.750287 1.6409826 1.0310652
-0.73892528 1.6153988 0.80602247
-0.72276402 1.5793506 0.60047174
-0.70984685 1.5497065 0.41509131
-0.70295483 1.5346662 0.24448855
-0.8091228 1.7811219 1.8235301
-0.78406394 1.7243764 1.4628397
-0.75757676 1.6653619 1.1607383
-0.73986053 1.6241769 0.91251045
-0.72871739 1.5989867 0.70072484
-0.71590722 1.5701635 0.50692576
-0.71076852 1.558899 0.33117324
-0.69654709 1.5270139 0.1613798
-0.0088530732 0.053802792 4.7340932
-0.89088035 2.0629022 14.284759
-1.0843546 2.4790773 13.032355
-1.2869773 2.9038668 10.201332
-1.0829103 2.427428 6.3214855
-0.56004733 1.2506219 2.5784888
-0.6803875 1.5151817 2.5120449
-0.83417153 1.8551114 2.5118976
-0.16777259 0.44609749 8.080924
-0.33508083 0.79914004 8.0387335
-1.5469421 3.5252619 14.859354
-1.1727248 2.6485879 7.9311891
-1.166435 2.6208522 5.9953613
-0.61320329 1.3732214 2.5301185
-0.75784791 1.6940387 2.5321748
-0.83517462 1.8634448 2.2920184
-0.82238728 1.8204257 2.0427978
-0.79858774 1.7653009 1.6446676
-0.769853 1.7010006 1.3087394
-0.75003791 1.6556969 1.0380214
-0.73710924 1.6264131 0.80976856
-0.72318947 1.5949706 0.60470188
-0.71052325 1.5655943 0.41788921
-0.70170969 1.5461801 0.24538271
-0.80749768 1.7941499 1.8335066
-0.78302032 1.7381587 1.4716691
-0.75707251 1.6797864 1.1683378
-0.7397874 1.6391598 0.91880459
-0.72896117 1.6144321 0.7056554
-0.71442395 1.5815122 0.50927037
-0.70736122 1.5658835 0.33186394
-0.69532764 1.5385411 0.16178286
-0.0086652124 0.053833369 4.7340932
-0.88245207 2.0631413 14.265
-1.0752896 2.4819131 13.02746
-1.2894328 2.9370446 10.301543
-1.1186501 2.5312634 6.579227
-0.55956274 1.2613264 2.596045
-0.67509437 1.5175475 2.5120449
-0.83290774 1.8697236 2.5272477
-0.16621441 0.4466804 8.080924
-0.33249345 0.80079734 8.043705
-1.5496577 3.5652244 15.004537
-1.1704031 2.668469 7.978117
-1.173086 2.6607635 6.0763836
-0.60840613 1.3753536 2.5301185
-0.75681323 1.7076933 2.548135
-0.83416748 1.8787426 2.3067191
-0.82185489 1.836306 2.0568159
-0.79878813 1.7822853 1.6572214
-0.7673322 1.7113084 1.3142223
-0.74969524 1.6704293 1.0449779
-0.7371242 1.6416638 0.81538767
-0.72154886 1.6062371 0.60752195
-0.70908278 1.5770254 0.41975445
-0.69835043 1.5531621 0.24582979
-0.80731177 1.8105984 1.8468086
-0.78353721 1.7556459 1.4834417
-0.75647688 1.6942278 1.1759374
-0.73961866 1.6541618 0.92509878
-0.72717774 1.6255881 0.70894241
-0.71485561 1.5973061 0.51278734
-0.70593667 1.5773834 0.33324531
-0.69403601 1.5500783 0.16218592
-0.0084745903 0.053819738 4.7290931
-0.87251818 2.0597696 14.220548
-1.0658166 2.4837797 13.01767
-1.2863154 2.9579546 10.358808
-1.1293924 2.5798957 6.6942902
-0.56093705 1.2764281 2.6223795
-0.66979307 1.5198948 2.5120449
-0.83155197 1.8843492 2.5425978
-0.16455503 0.44698676 8.0759325
-0.32969612 0.80195308 8.043705
-1.1652066 2.682035 8.0062733
-1.1646622 2.666837 6.0808845
-0.60360152 1.3774689 2.5301185
-0.7556923 1.7213612 2.564095
-0.83306366 1.8940561 2.3214197
-0.82122153 1.8522042 2.0708342
-0.79887962 1.7992927 1.6697752
-0.76814359 1.7292621 1.3251883
-0.7492587 1.6851795 1.0519344
-0.73704159 1.6569343 0.82100672
-0.71983838 1.6175113 0.61034197
-0.70757121 1.5884655 0.42161968
-0.69697726 1.5646886 0.24672395
-0.80702084 1.8270671 1.8601105
-0.78230721 1.7694608 1.4922713
-0.75753325 1.7126275 1.1860701
-0.73935407 1.6691827 0.93139297
-0.72723836 1.6410681 0.71387291
-0.7151857 1.6131222 0.51630425
-0.70243341 1.584365 0.33393598
-0.69267225 1.5616252 0.16258898
-0.0082866717 0.053848993 4.7290931
-0.86412114 2.0599365 14.20079
-1.0563438 2.485611 13.007879
-1.1258199 2.5963693 6.7265077
-0.56221271 1.2915545 2.6487141
-0.66448349 1.5222235 2.5120449
-0.83267176 1.9048622 2.5656228
-0.16299374 0.44755843 8.0759325
-0.32689476 0.80309904 8.043705
-1.7465591 4.0962782 17.182276
-1.1640218 2.7051082 8.0625868
-1.1674452 2.698859 6.1439013
-0.59878957 1.3795675 2.5301185
-0.75448513 1.7350419 2.5800552
-0.83321708 1.9124926 2.3397954
-0.82048726 1.8681204 2.0848522
-0.79886204 1.8163221 1.6823291
-0.76715481 1.743415 1.3334126
-0.74872828 1.6999465 1.0588907
-0.73686129 1.6722238 0.82662582
-0.71999305 1.6331824 0.61457211
-0.70797139 1.604408 0.42441753
-0.69754255 1.5807801 0.24806519
-0.80662465 1.8435559 1.8734126
-0.78261167 1.7869909 1.5040439
-0.75847024 1.7310553 1.1962028
-0.73899364 1.6842215 0.9376871
-0.72719973 1.6565684 0.71880347
-0.71345943 1.6245095 0.51864892
-0.70088118 1.5958754 0.33531734
-0.69324607 1.5777553 0.16319357
-0.0080986544 0.053877588 4.7290931
-0.85334963 2.0543292 14.14152
-1.0464762 2.4864671 12.993193
-1.3078001 3.0657201 10.70239
-1.123688 2.6164396 6.7679305
-0.56338942 1.306705 2.6750484
-0.65916592 1.5245337 2.5120449
-0.82729089 1.9106987 2.5694602
-0.16152775 0.44839647 8.080924
-0.32408944 0.80423516 8.043705
-1.7742965 4.2019367 17.598467
-1.1545721 2.7091548 8.0625868
-1.164018 2.7169249 6.1754098
-0.5939703 1.3816493 2.5301185
-0.75199974 1.7459675 2.592025
-0.8319087 1.9278406 2.3544962
-0.82107437 1.8873242 2.102375
-0.7987352 1.8333732 1.6948829
-0.76607651 1.7575815 1.341637
-0.74810386 1.7147306 1.0658472
-0.73472863 1.6832833 0.83037192
-0.71812731 1.6444782 0.61739212
-0.70630151 1.6158717 0.42628276
-0.69600946 1.5923318 0.24895935
-0.80612314 1.8600639 1.8867146
-0.78280312 1.8045444 1.5158166
-0.7575717 1.7455556 1.2038023
-0.73853707 1.6992779 0.94398123
-0.72517872 1.6677577 0.72209048
-0.71360135 1.6403614 0.52216589
-0.70123255 1.6119353 0.33738938
-0.69172192 1.5893272 0.16359663
-0.0079083377 0.053861953 4.7240939
-1.0370073 2.4882255 12.983403
-1.2941866 3.0633912 10.678531
-1.1252526 2.6455152 6.8323655
-0.56634808 1.3262849 2.7101612
-0.6538403 1.5268254 2.5120449
-0.81051081 1.8900081 2.5387602
-0.15996157 0.44895759 8.080924
-0.32128015 0.80536157 8.043705
-1.1471213 2.7179382 8.0766659
-1.1689813 2.7550402 6.2519307
-0.58914387 1.3837142 2.5301185
-0.75062943 1.7596684 2.6079853
-0.83183551 1.9463196 2.3728719
-0.82153732 1.9065547 2.1198976
-0.79849893 1.8504453 1.7074367
-0.76490867 1.771762 1.3498615
-0.7473852 1.7295306 1.0728035
-0.73436743 1.6986037 0.83599097
-0.71809572 1.6601834 0.62162226
-0.70651174 1.631851 0.42908064
-0.69638264 1.6084617 0.25030059
-0.80551624 1.8765908 1.9000165
-0.78288156 1.822121 1.5275892
-0.75658089 1.7600707 1.2114018
-0.73798442 1.7143518 0.95027542
-0.72495627 1.6832901 0.72702098
-0.71171778 1.6517701 0.5245105
-0.69952065 1.6234689 0.33877075
-0.69012541 1.6009079 0.16399969
-0.0077202758 0.053889234 4.7240939
-0.75842452 1.8623307 12.783223
-1.0271504 2.4890063 12.968718
-1.2811812 3.0623817 10.659442
-1.125111 2.6710324 6.8875957
-0.56358045 1.3326654 2.7189393
-0.6485067 1.5290984 2.5120449
-0.79639101 1.8751245 2.5157351
-0.15839344 0.4495132 8.080924
-0.31846696 0.8064782 8.043705
-1.8372357 4.4372048 18.527637
-1.1429501 2.7346637 8.1142082
-1.1374328 2.7069223 6.1348991
-0.58431023 1.3857622 2.5301185
-0.74800009 1.7706052 2.6199553
-0.8316434 1.9648217 2.3912477
-0.82047611 1.9225309 2.1339159
-0.79662371 1.8639588 1.7168521
-0.76365107 1.7859554 1.358086
-0.74482936 1.740274 1.0774411
-0.73390812 1.7139419 0.84161013
-0.71607423 1.671499 0.62444234
-0.70468307 1.6433367 0.43094587
-0.69665176 1.6246136 0.25164184
-0.80480355 1.8931359 1.9133185
-0.78284675 1.8397199 1.5393618
-0.75718659 1.7785662 1.2215346
-0.73555547 1.7252672 0.95447153
-0.72278142 1.6944975 0.730308
-0.71167105 1.6676562 0.52802747
-0.69968051 1.6395648 0.34084278
-0.69041806 1.6170912 0.16460429
-0.0075321198 0.053915851 4.7240939
-0.74959564 1.8592013 12.74371
-1.0176858 2.4906914 12.958926
-1.2893344 3.112345 10.816917
-1.1255571 2.698384 6.9474282
-0.56355023 1.3456702 2.7408845
-0.64316517 1.5313528 2.5120449
-0.77741486 1.8483473 2.4773602
-0.15682338 0.45006338 8.080924
-0.31545606 0.80708826 8.0387335
-1.8436667 4.4970908 18.750252
-1.1630895 2.8103909 8.3253813
-1.127977 2.7108762 6.1348991
-0.57946944 1.3877934 2.5301185
-0.74414068 1.7787651 2.6279354
-0.83002168 1.9802191 2.4059484
-0.82070172 1.941808 2.1514387
-0.79618078 1.8810661 1.7294059
-0.76393408 1.8040121 1.3690518
-0.74566501 1.7591773 1.0867163
-0.73154068 1.7250291 0.84535617
-0.71585602 1.6872364 0.62867242
-0.70470297 1.6593506 0.43374372
-0.69681638 1.6407866 0.25298306
-0.80398512 1.9096986 1.9266205
-0.78269845 1.8573406 1.5511343
-0.75599766 1.7931153 1.2291342
-0.73482472 1.7403678 0.96076572
-0.72237462 1.7100601 0.73523855
-0.70962995 1.6790848 0.53037208
-0.69973636 1.6556815 0.34291482
-0.68866044 1.6286943 0.16500735
-0.007342129 0.053898219 4.7190938
-0.74454087 1.8654151 12.768406
-1.008222 2.4923408 12.949137
