# .PCD v0.7 - Point Cloud Data file format
VERSION 0.7
FIELDS x y z
SIZE 4 4 4
TYPE F F F
COUNT 1 1 1
WIDTH 1542
HEIGHT 1
VIEWPOINT 0 0 0 1 0 0 0
POINTS 1542
DATA ascii
5.0569978 -2.1610851 9.0655289
4.2900877 -1.8262852 5.1329207
7.7376146 -3.2668548 8.3334579
3.9086316 -1.6478168 3.5026338
3.9169707 -1.650533 2.8713753
5.0517282 -2.1266391 2.9556692
5.2779889 -2.2208109 2.4018464
9.0431242 -3.8032227 2.973557
12.041961 -5.0594926 2.5713091
3.7881925 -1.6056073 3.7456691
3.8026361 -1.610172 3.0904071
3.9318428 -1.6640804 2.5945175
5.2099514 -2.2018187 2.7021492
5.8616676 -2.4748487 1.6253166
12.034725 -5.0811834 1.9142119
0.067902371 -0.057313524 8.6789427
0.82529241 -0.36798623 5.744781
1.6907413 -0.74475926 8.9056787
2.5254991 -1.0979584 8.8508606
3.4642935 -1.4961455 8.9495268
4.4883685 -1.9310473 9.021657
0.218732 -0.10989068 4.0726218
0.5565294 -0.25526717 5.667326
2.0897284 -0.91756785 8.8245916
2.9819596 -1.2976934 8.8978996
3.9591053 -1.7139746 8.9841681
5.0494232 -2.1787243 9.0655289
4.2899156 -1.8439269 5.1402707
7.7589688 -3.3078299 8.3685036
3.9028559 -1.6614504 3.5026338
3.8996422 -1.6592841 2.8631506
5.093195 -2.1650558 2.9834948
5.483542 -2.3298652 2.4954982
8.7825308 -3.7297583 2.8945949
12.083012 -5.1264372 2.5834332
3.7516711 -1.6055988 3.7157395
3.7858431 -1.6186689 3.0815778
3.9260101 -1.6777949 2.5945175
5.214757 -2.2253356 2.7084434
5.8619356 -2.4991071 1.6276612
11.975918 -5.1056828 1.9079959
0.067638822 -0.057489902 8.6689434
0.82471132 -0.37118393 5.7497206
1.6899921 -0.75148422 8.9154701
2.5230174 -1.1073672 8.8556318
3.4590497 -1.5082289 8.9495268
4.4816003 -1.9467028 9.021657
0.2180901 -0.11052197 4.0676303
0.55563498 -0.25720826 5.667326
2.0865128 -0.92485684 8.8245916
2.9774115 -1.3080944 8.8978996
3.9530983 -1.7277839 8.9841681
5.0417876 -2.1963367 9.0655289
4.2896724 -1.8615894 5.1476212
7.8816767 -3.3927052 8.5121899
3.9077601 -1.679675 3.5120492
3.8746176 -1.6646334 2.8494434
5.0774651 -2.1793265 2.978857
8.7650499 -3.758502 2.8931851
12.069559 -5.1705179 2.5843658
3.7117693 -1.6038743 3.6824846
3.7950134 -1.6382821 3.0933504
3.9240875 -1.6931968 2.5970509
5.1527719 -2.2201781 2.6811688
8.6919889 -3.743345 3.3829317
9.2328472 -3.9743705 2.5151055
12.076284 -5.1983628 1.9259535
0.067374855 -0.057665132 8.6589432
0.82341063 -0.37406042 5.7497206
1.690145 -0.75862992 8.9301548
2.5191367 -1.1161674 8.8556318
3.453764 -1.5202941 8.9495268
4.4769707 -1.9632964 9.0260468
0.21770298 -0.11128259 4.0676303
0.55473375 -0.25914621 5.667326
2.0832715 -0.93213445 8.8245916
2.9728274 -1.3184795 8.8978996
3.9470432 -1.7415724 8.9841681
5.03409 -2.2139225 9.0655289
4.286253 -1.8779123 5.1512961
7.8697863 -3.4201968 8.5121899
3.8840203 -1.6855575 3.496357
3.8534389 -1.6714922 2.8384776
9.9253283 -4.2991672 4.4584365
8.8223114 -3.8195693 2.9157457
12.150626 -5.2555199 2.6048834
3.6890366 -1.6093558 3.6658571
4.9564581 -2.1602378 4.0204463
3.9260573 -1.7103275 2.6021171
5.1408291 -2.2363405 2.6790707
9.0166492 -3.9205339 3.5111253
8.9915686 -3.9077682 2.4553173
12.058065 -5.2404852 1.9259535
0.067141823 -0.057869587 8.6539431
0.82209986 -0.37693241 5.7497206
1.690269 -0.76578599 8.9448404
2.5165877 -1.1255635 8.860404
3.4484363 -1.5323406 8.9495268
4.4700904 -1.978912 9.0260468
0.21705717 -0.11190848 4.0626383
0.5538258 -0.26108101 5.667326
2.0800052 -0.93940073 8.8245916
2.9682069 -1.3288486 8.8978996
3.9409399 -1.7553396 8.9841681
5.0263314 -2.2314813 9.0655289
4.2858729 -1.8956053 5.1586466
7.772891 -3.410392 8.421072
3.853157 -1.688171 3.4743876
3.8667314 -1.6933197 2.8521848
9.9612312 -4.3560762 4.4809132
9.0858421 -3.9713814 3.0045776
12.16372 -5.3116617 2.6114118
3.6868138 -1.6237283 3.6691828
4.9710855 -2.1872935 4.038105
3.9358473 -1.7309635 2.6122499
5.1080589 -2.2433219 2.6664822
8.9726419 -3.9386973 3.4996207
9.1114035 -3.9977186 2.4904869
12.062373 -5.2924919 1.9294069
0.066939421 -0.058103602 8.6539431
0.82148421 -0.38012633 5.7546597
1.6903633 -0.77295202 8.9595261
2.5126436 -1.1343412 8.860404
3.4430664 -1.5443686 8.9495268
4.4631557 -1.9945036 9.0260468
0.21666521 -0.11266547 4.0626383
0.5529111 -0.26301265 5.667326
2.0767133 -0.94665557 8.8245916
2.9635503 -1.3392015 8.8978996
3.9347887 -1.7690853 8.9841681
5.0185113 -2.2490129 9.0655289
4.2823257 -1.9119366 5.162322
3.8116441 -1.6858661 3.4430032
3.8799193 -1.7152605 2.8658922
5.3744855 -2.3737674 3.1620421
9.6321297 -4.2522726 4.3423085
9.2343092 -4.0747271 3.0567489
12.266465 -5.4075904 2.6365926
3.7050052 -1.6472057 3.692461
10.50071 -4.6642046 8.4499025
3.9022017 -1.732447 2.5945175
5.1167936 -2.2684968 2.6748745
8.8681765 -3.9298182 3.4651072
9.2351646 -4.0905218 2.5268288
11.971381 -5.3024778 1.9183561
0.06670507 -0.058306325 8.6489439
0.82015234 -0.38299152 5.7546597
1.6922773 -0.78098166 8.9840031
2.5100269 -1.1437241 8.8651762
3.4376543 -1.5563778 8.9495268
4.4583492 -2.0110552 9.0304346
0.21652573 -0.11355622 4.0676303
0.55198961 -0.26494107 5.667326
2.0733962 -0.95389885 8.8245916
2.9604275 -1.3502543 8.9025927
3.9285893 -1.7828095 8.9841681
5.0106301 -2.2665169 9.0655289
4.2756257 -1.9268731 5.162322
3.8163984 -1.7039216 3.4524186
3.8968191 -1.7390181 2.8823411
5.3621206 -2.3907096 3.1597233
10.03644 -4.4726892 4.527739
9.3602533 -4.1693969 3.1018701
12.184684 -5.4224138 2.6235359
3.7332978 -1.6754165 3.7257161
10.465923 -4.6925621 8.4351873
5.104701 -2.2844899 2.6727765
8.9406147 -3.9993134 3.4979773
9.1365213 -4.0850382 2.5045547
11.853341 -5.2997646 1.903161
0.06653215 -0.05856951 8.6539431
0.81881046 -0.38585204 5.7546597
1.6904638 -0.787314 8.9888983
2.5060194 -1.1524788 8.8651762
3.4322007 -1.568368 8.9495268
4.4513021 -2.0266056 9.0304346
0.21612802 -0.11431134 4.0676303
0.55106139 -0.26686624 5.667326
2.0700538 -0.96113056 8.8245916
2.9556963 -1.3605798 8.9025927
3.9223421 -1.796512 8.9841681
5.0026884 -2.2839935 9.0655289
4.2750449 -1.9445933 5.169672
3.8104272 -1.7172328 3.4524186
3.9097872 -1.7611969 2.8960483
5.3254662 -2.3966863 3.1434917
9.8643351 -4.4373279 4.4584365
9.0918837 -4.0879478 3.0200882
12.076063 -5.4246564 2.6048834
3.7716408 -1.7084663 3.7689478
5.3550205 -2.4223557 3.5393932
5.1297841 -2.3172417 2.6895609
5.3716621 -2.4253814 2.1404388
9.4411888 -4.2608657 2.5889614
11.830256 -5.3390718 1.9024705
0.066296399 -0.058770593 8.6489439
0.81816018 -0.38904175 5.7595987
1.6923125 -0.79537606 9.0133734
2.501981 -1.1612194 8.8651762
3.4267051 -1.5803391 8.9495268
4.4442005 -2.0421312 9.0304346
0.21547352 -0.11492816 4.0626383
0.55012655 -0.26878819 5.667326
2.0655479 -0.96781713 8.8197517
2.9509289 -1.3708888 8.9025927
3.9160473 -1.8101926 8.9841681
4.9970541 -2.3025339 9.0697956
4.2620697 -1.9566753 5.162322
8.6916494 -3.9591298 9.4654264
3.8079529 -1.7321349 3.4555571
3.8998094 -1.773103 2.893307
5.3211012 -2.417093 3.1458106
10.000749 -4.540731 4.525866
9.6585369 -4.3833251 3.2076225
12.057055 -5.4667768 2.6048834
3.7724457 -1.7247266 3.7755985
10.771156 -4.9200177 8.7059574
5.3465323 -2.4410334 3.5393932
5.0968866 -2.323837 2.6769726
5.3846483 -2.4539087 2.1486564
12.739334 -5.8029528 3.4670272
0.066060059 -0.058970738 8.6439447
0.81679714 -0.39189529 5.7595987
1.684926 -0.79909641 8.9888983
2.4992642 -1.1705791 8.8699484
3.4211679 -1.5922908 8.9495268
4.4370451 -2.057632 9.0304346
0.21507104 -0.11567961 4.0626383
0.54918492 -0.27070686 5.667326
2.0610211 -0.97448397 8.8149128
2.9461255 -1.3811811 8.9025927
3.9116774 -1.8247714 8.9886694
4.988986 -2.3199627 9.0697956
4.2367573 -1.9629894 5.1402707
8.6356525 -3.9700794 9.4198675
3.7841969 -1.7372966 3.4398646
3.908798 -1.7936811 2.9042728
5.4294081 -2.4891911 3.2130558
10.427358 -4.7784004 4.7225342
3.7799635 -1.7441417 3.7889006
10.713538 -4.9389715 8.673583
5.3144884 -2.4488571 3.5241942
5.0887442 -2.3416142 2.6769726
8.7266397 -4.0137887 3.4322369
12.166966 -5.593595 3.3204875
0.065853804 -0.059200972 8.6439447
0.8154242 -0.39474407 5.7595987
1.6793714 -0.80365413 8.9742117
2.495163 -1.179296 8.8699484
3.4173572 -1.6050539 8.9541292
4.4298358 -2.0731077 9.0304346
0.21441273 -0.11629096 4.0576468
0.54823661 -0.27262223 5.667326
2.0564725 -0.98113108 8.8100739
2.9412866 -1.3914566 8.9025927
3.9052839 -1.8384145 8.9886694
4.9832182 -2.3384714 9.0740614
4.2605896 -1.9921262 5.1770225
8.7252626 -4.0482302 9.5320129
7.7194209 -3.576648 6.9423823
3.8759525 -1.7950137 2.8850825
5.4126449 -2.5044074 3.2084181
10.486353 -4.8497977 4.756249
12.054273 -5.5672946 2.6123445
3.7840061 -1.7620541 3.798877
10.644926 -4.9524689 8.6323786
5.3019991 -2.4655755 3.521661
9.5631952 -4.4410934 4.9617515
8.6012125 -3.992533 3.3895056
12.429554 -5.7669587 3.3955159
0.065719754 -0.059284747 8.6389446
0.81543267 -0.39650667 5.7645383
1.677189 -0.80584997 8.9693165
2.4933074 -1.1832139 8.8699484
3.415113 -1.6098238 8.9541292
4.4291043 -2.0803092 9.0348234
0.21431118 -0.11647803 4.0576468
0.54752159 -0.27286243 5.6623545
2.053519 -0.98148227 8.800395
2.9403143 -1.3935097 8.9025927
3.9043207 -1.840459 8.9886694
4.9819932 -2.3410802 9.0740614
8.6470709 -4.0303073 9.4549131
7.6467404 -3.5575733 6.8827515
4.8210058 -2.2418947 3.5704489
5.3448596 -2.4821098 3.1713173
10.53003 -4.8878574 4.7787251
9.7397566 -4.5168982 3.2456934
12.328258 -5.7121201 2.6710994
3.796001 -1.7716722 3.8121791
10.601166 -4.9411154 8.6000042
5.2651091 -2.4528921 3.4988623
9.6177025 -4.4745717 4.9911246
8.6976109 -4.0428157 3.4273062
12.545551 -5.828763 3.4271686
0.065481886 -0.059482612 8.6339445
0.81474113 -0.39969307 5.7694774
1.6742241 -0.81199175 8.9693165
2.4889541 -1.1923444 8.8699484
3.4089065 -1.622925 8.9541292
4.4210839 -2.0973003 9.0348234
0.21380091 -0.11741203 4.0576468
0.54632586 -0.27524886 5.6623545
2.0479121 -0.99024332 8.7955551
2.9339604 -1.4068381 8.9025927
3.8956046 -1.8588374 8.9886694
4.9709063 -2.3645313 9.0740614
7.4328375 -3.4912522 6.7038593
4.8430371 -2.273766 3.5923805
5.3272686 -2.4988515 3.1666799
12.483177 -5.8448825 2.7084043
3.794987 -1.7914062 3.8188303
10.271546 -4.8443384 8.3527784
5.2344275 -2.4675682 3.4861965
9.638361 -4.5375004 5.012105
8.5289173 -4.0133867 3.3697836
12.456367 -5.8588548 3.4107561
0.065273851 -0.059710823 8.6339445
0.81334096 -0.40253463 5.7694774
1.6750379 -0.81962144 8.9888983
2.484777 -1.2010252 8.8699484
3.4049816 -1.6356604 8.9587317
4.4137363 -2.11272 9.0348234
0.21338975 -0.11815761 4.0576468
0.54488665 -0.27691236 5.6573825
2.0421839 -0.99628347 8.7858763
2.9290318 -1.4170709 8.9025927
3.8890922 -1.8724241 8.9886694
4.9602709 -2.3807402 9.0697956
7.1689191 -3.4024687 7.8778667
7.4206057 -3.5171762 6.7038593
7.7863116 -3.6888549 5.7334657
5.2744703 -2.4965847 3.1411729
10.095815 -4.7765617 4.6007872
9.5277824 -4.5057821 3.1878817
11.983023 -5.6617813 2.6076813
3.8190489 -1.8190932 3.8487597
10.6232 -5.0555949 8.6500378
5.2296748 -2.4876764 3.4887297
9.6101646 -4.5652742 5.0058107
8.604435 -4.085669 3.4042974
12.510489 -5.9377298 3.4306855
0.065034717 -0.059906915 8.6289444
0.812626 -0.40571854 5.7744169
2.4792275 -1.2090371 8.8651762
3.3992515 -1.6475362 8.9587317
4.4063349 -2.128114 9.0348234
5.4767127 -2.6380446 9.0007744
0.21297601 -0.11890177 4.0576468
0.54344255 -0.27856919 5.652411
2.0375662 -1.0028508 8.7810364
2.9240675 -1.4272865 8.9025927
3.884491 -1.8869396 8.9931707
4.95193 -2.3980403 9.0697956
7.3660665 -3.5275958 8.1056623
7.920516 -3.786346 5.8403831
5.2657237 -2.514981 3.1411729
10.070712 -4.8077793 4.5970411
9.1050339 -4.3448148 3.0553389
11.887807 -5.6676373 2.5918267
3.7958496 -1.8243262 3.8321321
4.6917858 -2.2529263 3.8732882
5.236505 -2.5133777 3.4988623
9.7455978 -4.6713767 5.0834384
8.9435854 -4.2850313 3.5407085
12.60805 -6.0380487 3.4623382
0.064795017 -0.060102068 8.6239452
0.81189859 -0.40890238 5.7793555
2.4749923 -1.2176838 8.8651762
3.3934796 -1.6593916 8.9587317
4.3988791 -2.143482 9.0348234
5.4548168 -2.650996 8.9801102
0.21255967 -0.11964446 4.0576468
0.54246682 -0.28046444 5.652411
2.0329273 -1.0093981 8.7761974
2.9190676 -1.4374847 8.9025927
3.8778806 -1.9004875 8.9931707
4.9435296 -2.4153111 9.0697956
7.3248081 -3.5393221 8.0741215
7.8165317 -3.771889 7.0804744
4.8641558 -2.3461561 3.6252785
5.2648935 -2.5371926 3.1458106
9.4900246 -4.571301 4.3441815
9.2843084 -4.4702177 3.1187901
11.90779 -5.7282648 2.6002202
3.7827392 -1.8343066 3.8254809
4.7057185 -2.2798643 3.8909469
5.2858968 -2.5598249 3.5368602
9.7455759 -4.7132711 5.0918312
9.1539021 -4.4251518 3.6278145
9.2695246 -4.4790559 2.5737214
0.064554736 -0.060296271 8.6189451
0.8111589 -0.4120861 5.7842951
2.4707267 -1.2263157 8.8651762
3.3876665 -1.671227 8.9587317
4.3913703 -2.158824 9.0348234
5.4455299 -2.6700206 8.9801102
0.21214072 -0.12038571 4.0576468
0.54148448 -0.28235632 5.652411
2.0282676 -1.0159252 8.7713585
2.9155772 -1.4484332 8.9072847
3.871223 -1.9140122 8.9931707
4.9374075 -2.4337056 9.0740614
8.6395273 -4.2118611 9.5250044
7.733326 -3.7650738 7.017705
4.8634562 -2.3667803 3.6307611
5.2838922 -2.5691142 3.1620421
9.4615021 -4.5983205 4.3385625
9.2686481 -4.5025988 3.1187901
14.057564 -6.8229456 3.0581367
9.5785418 -4.6862159 9.5785961
4.7413082 -2.3175771 3.9262648
5.1955914 -2.5385194 3.4836633
7.3878055 -3.6048467 3.8875489
8.8243246 -4.3038936 3.5061951
9.2538328 -4.5113854 2.5737214
11.706719 -5.707211 1.9086864
0.06434387 -0.060521241 8.6189451
0.81178975 -0.41597876 5.7991133
2.4664309 -1.2349328 8.8651762
3.3800635 -1.6821715 8.9541292
4.3838081 -2.1741393 9.0348234
5.4462657 -2.6940033 8.9966412
0.21171921 -0.12112549 4.0576468
0.54049563 -0.28424472 5.652411
2.0224655 -1.0218651 8.7616796
2.9105036 -1.4586016 8.9072847
3.8645182 -1.9275137 8.9931707
4.9288821 -2.4509254 9.0740614
8.7591782 -4.3080997 9.6721954
7.2729535 -3.572392 6.6159825
4.843905 -2.3782139 3.6225369
5.2231903 -2.5621808 3.1318977
9.5119925 -4.6639748 4.3685312
9.3433332 -4.5792599 3.148401
14.046898 -6.8784556 3.0609348
11.950426 -5.851861 1.287524
9.7663622 -4.8204298 9.7814522
4.7585659 -2.3466277 3.9468672
5.1712327 -2.549016 3.4735308
7.3629608 -3.624599 3.8812547
8.7456913 -4.3033962 3.4815421
9.1159029 -4.483593 2.5408964
11.686727 -5.7480402 1.9086864
0.064132221 -0.060745474 8.6189451
0.80895251 -0.41809595 5.7892346
2.4621053 -1.2435346 8.8651762
3.374171 -1.6939598 8.9541292
4.3761921 -2.1894286 9.0348234
5.4368286 -2.7129979 8.9966412
0.21154459 -0.12200905 4.0626383
0.53997082 -0.28637975 5.6573825
2.017766 -1.0283476 8.7568398
2.9053943 -1.4687523 8.9072847
3.8577666 -1.9409915 8.9931707
4.9202967 -2.4681156 9.0740614
8.9804878 -4.4559479 9.931531
7.9161081 -3.9226642 7.2060127
4.8318267 -2.3932517 3.6197953
5.2142148 -2.5803974 3.1318977
9.3377523 -4.6190405 4.2973557
9.3186913 -4.6075935 3.145581
13.996377 -6.914392 3.0553391
11.894207 -5.8758945 1.2839473
9.6358366 -4.7979069 9.6683846
4.7684398 -2.3722255 3.9615827
5.177743 -2.5747292 3.4836633
7.3380699 -3.644223 3.8749607
8.726387 -4.331799 3.4798989
9.1698627 -4.5499535 2.5596535
11.81298 -5.8614359 1.9314789
0.06391979 -0.060968969 8.6189451
0.80955476 -0.42199531 5.8040519
2.4577494 -1.2521214 8.8651762
3.3682373 -1.7057276 8.9541292
4.3685231 -2.2046909 9.0348234
5.4298387 -2.7332246 9.0007744
0.21111742 -0.12274672 4.0626383
0.53943783 -0.28851461 5.6623545
2.0130463 -1.0348099 8.7519999
2.9002497 -1.4788849 8.9072847
3.8509676 -1.954446 8.9931707
4.9139791 -2.4864531 9.0783272
9.0477943 -4.5287709 10.02265
7.6969562 -3.8475895 7.0208435
4.8197026 -2.4082344 3.6170537
5.181396 -2.5867112 3.117985
9.1722393 -4.5770879 4.2299266
9.3154297 -4.6465178 3.149811
13.945776 -6.9500599 3.0497432
11.797853 -5.8796158 1.2763469
9.61903 -4.8315129 9.6683846
4.7601299 -2.3888559 3.9615827
5.1687241 -2.5927873 3.4836633
7.398344 -3.7064068 3.9127252
8.7281027 -4.3706908 3.4864726
9.1539249 -4.5819345 2.5596535
11.774735 -5.8937693 1.9287162
0.063765861 -0.06125576 8.6289444
0.8073892 -0.42445683 5.7991133
3.597568 -1.8709303 19.518532
2.4533639 -1.260693 8.8651762
3.3622627 -1.7174746 8.9541292
4.3608003 -2.2199266 9.0348234
5.4202647 -2.7521617 9.0007744
0.21093613 -0.12362992 4.0676303
0.53889638 -0.29064921 5.667326
2.008306 -1.0412518 8.7471609
2.8950698 -1.4889998 8.9072847
3.8441219 -1.9678763 8.9931707
4.9052696 -2.5035911 9.0783272
8.9268761 -4.5072823 9.9069996
7.3845901 -3.723716 6.750936
4.8075337 -2.4231617 3.6143126
8.7421207 -4.4006319 4.0426235
9.2948685 -4.6768498 3.148401
13.759045 -6.9170609 3.0152364
11.714966 -5.8894467 1.2700878
9.5188389 -4.8228712 9.585247
4.7553687 -2.4072831 3.9645259
6.7828236 -3.4321647 4.5526652
7.4056144 -3.7424445 3.9232159
8.4978304 -4.2925453 3.4026537
9.0554361 -4.5722351 2.5373797
14.234009 -7.1869888 2.3161876
0.06361071 -0.061542217 8.6389446
1.2486106 -0.66216922 8.9849348
3.5964251 -1.8863144 19.547901
2.4489481 -1.2692491 8.8651762
3.3562472 -1.7292006 8.9541292
4.3551555 -2.2362292 9.0392132
5.4131298 -2.7723482 9.0049076
0.21075124 -0.12451333 4.0726218
0.53787857 -0.29252854 5.667326
2.0035453 -1.0476732 8.742321
2.8898547 -1.4990964 8.9072847
3.8391631 -1.9822813 8.9976711
4.8965001 -2.5206983 9.0783272
8.7839746 -4.4736757 9.7668171
7.3611393 -3.7441764 6.7415214
4.7953181 -2.4380331 3.6115711
8.7267056 -4.4311213 4.0426235
10.146844 -5.1500006 3.4346375
13.67786 -6.9361644 3.0031121
11.747635 -5.9573317 1.2754529
9.6282864 -4.9206371 9.7116165
4.7469368 -2.4238677 3.9645259
6.8744702 -3.5087333 4.6210604
7.3480272 -3.7455993 3.9001372
8.4827948 -4.3221822 3.4026537
8.9571266 -4.5619035 2.5151055
14.350041 -7.308548 2.3382895
0.06351316 -0.061892789 8.6589432
1.2387555 -0.66249132 8.9306021
3.5844188 -1.8960003 19.518532
2.4445028 -1.2777897 8.8651762
3.3519242 -1.7418064 8.9587317
4.3473234 -2.2514176 9.0392132
5.4034195 -2.7912266 9.0049076
0.21031532 -0.12524824 4.0726218
0.53732133 -0.29466093 5.672297
1.9987643 -1.0540742 8.7374811
2.8846042 -1.5091747 8.9072847
3.8322201 -1.9956706 8.9976711
4.8853569 -2.5365729 9.0740614
6.9189324 -3.5542698 7.7236676
7.4900131 -3.8426955 6.8701978
4.7867785 -2.454757 3.6115711
8.7153111 -4.4636693 4.0444965
10.098916 -5.1700859 3.4247673
13.579218 -6.945838 2.9872577
11.757804 -6.0141773 1.2785825
9.6376019 -4.9679022 9.7382202
4.752821 -2.4478259 3.9762986
6.8391843 -3.5208693 4.6058617
7.3026185 -3.7546241 3.8833528
8.4676561 -4.3517666 3.4026537
8.9973536 -4.622015 2.5303457
11.514153 -5.9149213 1.8976356
0.063296728 -0.062114112 8.6589432
1.2364354 -0.66681135 8.9306021
3.5876608 -1.9137727 19.57238
2.4400275 -1.2863148 8.8651762
3.3458235 -1.7534962 8.9587317
4.3415608 -2.267688 9.043602
5.3961391 -2.8113713 9.0090408
0.20987684 -0.1259816 4.0726218
0.53628945 -0.29653472 5.672297
1.9950727 -1.0610447 8.7374811
2.8793185 -1.5192347 8.9072847
3.8252308 -2.0090351 8.9976711
4.8764729 -2.5536106 9.0740614
6.9254823 -3.5882432 7.7446947
7.5318642 -3.8974383 6.920413
4.7707529 -2.4676089 3.6060879
7.0298009 -3.6329873 4.2286901
8.6832008 -4.4855533 4.037004
9.6076851 -4.9610052 3.2682538
13.432656 -6.9301333 2.9611444
11.736739 -6.0551829 1.2785825
9.5406961 -4.9601779 9.6584082
4.758595 -2.4718544 3.9880712
6.9071951 -3.5864377 4.6590586
9.2717381 -4.808042 4.9155946
8.494338 -4.403029 3.4190888
8.8344297 -4.5773659 2.4904869
11.52861 -5.9733024 1.903161
0.06290438 -0.062140096 8.6289444
1.2313703 -0.66963792 8.9108458
3.5827515 -1.9272491 19.582169
2.4355226 -1.2948244 8.8651762
3.3414097 -1.7660775 8.963335
4.3336186 -2.282829 9.043602
5.3887839 -2.8314991 9.0131731
0.20943579 -0.12671344 4.0726218
0.53525114 -0.2984049 5.672297
1.9913568 -1.0680023 8.7374811
2.8739977 -1.5292761 8.9072847
3.8181946 -2.0223756 8.9976711
4.8675294 -2.570617 9.0740614
6.9097538 -3.6107442 7.74119
7.5113125 -3.920104 6.9141359
4.773232 -2.4900491 3.6143126
7.0170765 -3.6575036 4.2286901
8.6633797 -4.5136938 4.035131
9.6456194 -5.0233173 3.2865841
13.443245 -6.9951196 2.9686053
11.583 -6.027153 1.26517
8.2336836 -4.3172359 8.3614626
4.7642593 -2.4959531 3.9998438
7.0053802 -3.6685219 4.7325206
9.2709837 -4.8487906 4.9239864
8.5375042 -4.4632816 3.4420979
8.8700933 -4.6351905 2.5045547
11.507689 -6.0135088 1.903161
0.062628932 -0.06229423 8.6189451
1.2290254 -0.67393214 8.9108458
3.5813723 -1.9426566 19.61154
2.4309878 -1.303318 8.8651762
3.3352244 -1.7777305 8.963335
4.3256235 -2.2979424 9.043602
5.3813539 -2.8516099 9.0173063
0.20899221 -0.12744373 4.0726218
0.53420621 -0.30027148 5.672297
1.9876165 -1.074947 8.7374811
2.8686421 -1.5392989 8.9072847
3.8130324 -2.0367172 9.0021725
4.8585267 -2.5875924 9.0740614
6.8497844 -3.6099014 7.688622
7.4941387 -3.9444866 6.9109974
4.7756128 -2.5125363 3.6225369
7.0042667 -3.6819756 4.2286901
8.6352596 -4.5374379 4.0295119
9.4963722 -4.9878063 3.2428732
13.401346 -7.0328717 2.9648747
11.473699 -6.021266 1.2562284
8.1558504 -4.312788 8.2982788
4.7662392 -2.5182331 4.0086732
6.9925318 -3.6929526 4.7325206
9.4747906 -4.9975805 5.0393796
11.530438 -6.0767298 1.9100678
0.06226629 -0.062349301 8.5939465
1.2266654 -0.67821813 8.9108458
3.5781429 -1.9571009 19.631123
2.4264238 -1.3117958 8.8651762
3.3289988 -1.7893617 8.963335
4.3175759 -2.3130276 9.043602
5.3713675 -2.8703771 9.0173063
0.20854607 -0.12817249 4.0726218
0.53315485 -0.30213436 5.672297
1.9838523 -1.0818785 8.7374811
2.8647692 -1.5501243 8.9119778
3.8058994 -2.0500145 9.0021725
4.8494644 -2.6045358 9.0740614
6.7930536 -3.6103575 7.6395578
7.5181422 -3.9906962 6.9455209
4.8148308 -2.5546689 3.6581759
6.9522328 -3.6856537 4.205502
8.5988865 -4.5566993 4.0201468
9.54249 -5.054606 3.2640238
13.415791 -7.1002889 2.9732683
11.452611 -6.0612803 1.2562284
8.1341581 -4.3377175 8.2916279
4.7574196 -2.5348551 4.0086732
6.9834032 -3.7193654 4.7350535
9.7017088 -5.1606388 5.1673608
9.7736435 -5.1967206 3.9417248
9.1980524 -4.8886204 2.6030295
13.831123 -7.3510332 2.276819
0.062048271 -0.062566265 8.5939465
1.2236117 -0.68211728 8.9059067
3.575747 -1.9720377 19.655598
2.4218299 -1.3202575 8.8651762
3.3210149 -1.8000402 8.9587317
4.3094759 -2.3280847 9.043602
5.3613153 -2.8891091 9.0173063
0.2080974 -0.12889966 4.0726218
0.53209692 -0.30399358 5.672297
1.9800638 -1.0887969 8.7374811
2.8593409 -1.5601147 8.9119778
3.7987204 -2.0632873 9.0021725
4.8403435 -2.6214478 9.0740614
6.7646937 -3.6256244 7.622035
7.5384822 -4.035284 6.9769053
4.8427525 -2.5911875 3.6855905
6.9393253 -3.7098989 4.205502
8.5706625 -4.5801325 4.0145278
9.6474934 -5.1534309 3.3049145
13.538268 -7.2257171 3.0049775
11.374269 -6.0707369 1.2504164
8.1091003 -4.3607788 8.2816515
4.7058158 -2.5284879 3.9733553
6.9627819 -3.7396395 4.7299871
9.5876493 -5.1429834 5.1170073
9.5723295 -5.1326203 3.8694103
9.180932 -4.9206977 2.6030295
13.905767 -7.4530735 2.2927046
0.061886966 -0.062848151 8.6039457
1.2212232 -0.68638432 8.9059067
3.5724013 -1.986487 19.675179
2.4172068 -1.3287034 8.8651762
3.3147113 -1.8116218 8.9587317
4.3013229 -2.3431134 9.043602
5.3511972 -2.9078059 9.0173063
0.20764619 -0.12962528 4.0726218
0.53103256 -0.30584911 5.672297
1.976251 -1.0957019 8.7374811
2.8553896 -1.5709182 8.9166708
3.7895856 -2.0754888 8.9976711
4.8311634 -2.6383278 9.0740614
7.5363336 -4.0731277 8.4981718
7.5688772 -4.0856094 7.017705
4.8704777 -2.6279318 3.7130053
6.926333 -3.7340991 4.205502
8.5178938 -4.5902286 3.9976707
13.512963 -7.2729301 3.0049775
11.353008 -6.1104035 1.2504164
8.0938292 -4.3890586 8.2816515
9.8216333 -5.3215814 8.2173929
6.9307337 -3.7536569 4.7173214
7.4938369 -4.0535693 4.0260205
9.6291246 -5.2064309 3.8989935
8.89431 -4.8071175 2.5291734
11.453102 -6.1900773 1.9079959
0.061667208 -0.063063793 8.6039457
1.21882 -0.69064301 8.9059067
3.5698857 -2.0014348 19.699656
2.4125538 -1.3371328 8.8651762
3.3083675 -1.8231812 8.9587317
4.2931175 -2.3581135 9.043602
5.3410144 -2.9264674 9.0173063
0.20743619 -0.13050404 4.0776138
0.53042257 -0.30796888 5.6772685
1.9724144 -1.1025937 8.7374811
2.8498888 -1.5808758 8.9166708
3.7823176 -2.0887041 8.9976711
4.8242092 -2.6564338 9.0783272
7.8588324 -4.2776189 7.2970276
4.8429098 -2.6349249 3.6992979
8.5099649 -4.6243601 4.0014162
11.761105 -6.388402 4.0240312
13.288895 -7.2122688 2.9620769
11.283464 -6.1238656 1.2454985
8.0555277 -4.4047451 8.2583723
9.7001324 -5.2996325 8.132041
11.711117 -6.3956857 7.9268594
8.8817415 -4.8404603 2.5303457
11.69232 -6.3722034 1.9494365
0.061475199 -0.063311696 8.6089449
1.2164017 -0.6948933 8.9059067
3.5619915 -2.0133827 19.694761
2.4078717 -1.345546 8.8651762
3.3019831 -1.8347186 8.9587317
4.2848601 -2.3730848 9.043602
5.3307667 -2.9450934 9.0173063
0.20697938 -0.13122733 4.0776138
0.52934432 -0.30981854 5.6772685
1.9685535 -1.1094719 8.7374811
2.8443532 -1.5908141 8.9166708
3.7750037 -2.1018941 8.9976711
4.8171878 -2.6745234 9.082593
6.6388435 -3.6481736 7.5239077
7.9359813 -4.3555894 7.3817663
4.8373489 -2.6538253 3.7020395
8.4937706 -4.6540375 4.0014162
11.591476 -6.348763 3.9746802
11.677861 -6.3907843 2.6188729
11.222702 -6.1416984 1.2414749
9.2597113 -5.1052642 9.4987841
11.52257 -6.3450332 7.8153992
9.6380625 -5.2985516 3.9170723
8.7284775 -4.796526 2.4928315
11.934742 -6.5584583 1.9915681
0.061253823 -0.0635259 8.6089449
1.2139686 -0.69913512 8.9059067
3.5682108 -2.0333667 19.768188
2.4044607 -1.3546757 8.8699484
3.2955587 -1.8462334 8.9587317
4.2765508 -2.3880272 9.043602
5.3229122 -2.9650524 9.0214396
0.20652005 -0.13194904 4.0776138
0.52871853 -0.31193557 5.6822405
1.9646688 -1.1163367 8.7374811
2.838783 -1.6007332 8.9166708
3.7676437 -2.1150587 8.9976711
4.8100982 -2.692596 9.0868597
7.6983361 -4.2953482 9.6349974
7.5837293 -4.2019467 8.599803
7.8458061 -4.3418026 7.3127203
9.6123924 -5.3128676 5.8356185
8.5058784 -4.6993513 4.0145278
11.59024 -6.4007816 3.9817305
11.414631 -6.2986069 2.5666461
11.310201 -6.2409849 1.2526518
9.3984795 -5.2246356 9.6584082
7.4862576 -4.1582065 6.3190546
6.9475789 -3.8574164 4.7553191
7.514483 -4.167037 4.0595889
9.6153774 -5.3298726 3.9154286
13.558517 -7.5125031 3.8292735
13.384518 -7.4160967 2.2263994
0.061031707 -0.06373933 8.6089449
1.2121928 -0.70375866 8.9108458
3.5655057 -2.0483458 19.792664
2.3997173 -1.3630606 8.8699484
3.2890942 -1.8577257 8.9587317
4.2681885 -2.4029408 9.043602
5.3149834 -2.9849927 9.0255718
0.2060582 -0.13266911 4.0776138
0.52762645 -0.31377926 5.6822405
1.96076 -1.1231879 8.7374811
2.833178 -1.6106325 8.9166708
3.7621324 -2.1292696 9.0021725
4.8006697 -2.7093701 9.0868597
7.7335258 -4.3504515 9.6974745
7.589272 -4.234509 7.0898895
10.555747 -5.887289 8.0088825
9.3345318 -5.2019105 5.6802592
8.5299225 -4.7515736 4.033258
9.7195387 -5.4120331 3.359906
11.766031 -6.5461907 2.647784
11.288346 -6.280427 1.2526518
9.3117857 -5.2190738 9.5885725
7.4540648 -4.1744385 6.3043389
6.9415946 -3.8858559 4.7603855
7.4642391 -4.1733084 4.0407066
9.6832771 -5.4117827 3.9499424
13.447344 -7.5123744 3.8058271
13.609294 -7.6028509 2.2664587
0.060808841 -0.063951984 8.6089449
1.2103993 -0.7083782 8.9157839
3.5583336 -2.0607793 19.792664
2.3962402 -1.3721708 8.8747206
3.284287 -1.8701624 8.963335
4.2597747 -2.4178247 9.043602
5.3069797 -3.0049138 9.029705
0.20559384 -0.13338758 4.0776138
0.52698499 -0.3158935 5.687212
1.9568274 -1.1300254 8.7374811
2.8260412 -1.6196542 8.9119778
3.7546773 -2.1423891 9.0021725
4.7934499 -2.727401 9.0911255
7.5262456 -4.2390375 8.5682631
7.6524696 -4.3048677 7.1620741
10.480462 -5.8933573 7.9677606
9.2004576 -5.1693654 5.6106949
8.5577469 -4.8062911 4.0538616
9.4161453 -5.2862411 3.2640238
11.74311 -6.5872216 2.647784
11.218578 -6.2929921 1.247734
9.4137859 -5.3195119 9.7116165
7.4676061 -4.2163315 6.3278842
6.8529048 -3.8676865 4.709722
7.4259048 -4.185966 4.0281186
9.5738201 -5.3945522 3.9137852
9.1139832 -5.133358 2.6135802
13.970999 -7.8690314 2.32862
0.060585238 -0.064163856 8.6089449
1.2079191 -0.71259898 8.9157839
2.3927283 -1.3812732 8.8794928
3.2777388 -1.8816152 8.963335
4.2513089 -2.4326794 9.043602
5.3013463 -3.0262105 9.0379705
7.3832612 -4.2095652 10.252144
0.20488599 -0.13394547 4.0726218
0.52587909 -0.31773111 5.687212
1.952871 -1.1368492 8.7374811
2.8203702 -1.629509 8.9119778
3.7471759 -2.1554823 9.0021725
4.7861624 -2.745414 9.0953913
8.1238203 -4.6449704 10.223023
7.4369736 -4.2230191 8.4841537
10.459827 -5.9299054 7.9677606
7.4902921 -4.2429557 4.592742
8.5651226 -4.8498397 4.0650997
9.4226847 -5.3332548 3.2724838
11.65163 -6.5894823 2.6328621
11.15753 -6.3100505 1.2437102
9.421114 -5.3671255 9.7382202
7.4493294 -4.2403722 6.3249407
6.8843231 -3.9171672 4.7401204
7.6322141 -4.3374395 4.1456094
9.5754595 -5.4396005 3.9220026
9.2481699 -5.251545 2.6557837
13.913301 -7.9006343 2.3237851
0.060360894 -0.064374946 8.6089449
1.2054243 -0.71681106 8.9157839
2.3878922 -1.389617 8.8794928
3.2711508 -1.8930451 8.963335
4.2427917 -2.4475045 9.043602
5.2931895 -3.0461009 9.0421038
7.3963108 -4.2512846 10.290519
0.20441718 -0.13465983 4.0726218
0.52431172 -0.31928724 5.6822405
1.9488907 -1.143659 8.7374811
2.8146651 -1.639344 8.9119778
3.7415123 -2.1696413 9.0066738
4.7765498 -2.7621043 9.0953913
8.0605621 -4.6462116 10.164221
7.4098086 -4.2418666 8.4701357
8.5886126 -4.9107442 8.0596724
10.526191 -6.0161781 8.033556
7.2830992 -4.1592355 4.4768019
8.5561924 -4.8843045 4.0688457
9.3790121 -5.3518491 3.2640238
11.57735 -6.6009169 2.6216705
11.109479 -6.3341599 1.2410277
7.6312623 -4.3828077 7.9191713
9.3240862 -5.3507271 7.911304
11.264247 -6.4615097 7.7166052
7.6603451 -4.3888726 4.1686878
9.5728064 -5.4823799 3.9285767
9.271965 -5.3079433 2.6675067
13.997378 -8.0131207 2.341743
0.060108013 -0.064551629 8.6039457
1.2029148 -0.72101444 8.9157839
2.3843145 -1.3986992 8.884264
3.264523 -1.9044521 8.963335
4.2342224 -2.4622996 9.043602
5.2873926 -3.0673833 9.0503702
7.3703327 -4.2706485 10.275168
0.20370603 -0.13521193 4.0676303
0.52319402 -0.32111549 5.6822405
1.9448867 -1.1504549 8.7374811
2.8089256 -1.649159 8.9119778
3.7339158 -2.1826885 9.0066738
4.7668796 -2.7787607 9.0953913
8.0530891 -4.6794295 10.175246
7.330091 -4.2302713 8.3965397
8.5545588 -4.9309754 8.0439806
11.505088 -6.6290498 8.7902002
7.5027175 -4.3194561 4.6182489
8.5712357 -4.9326401 4.0838299
9.4143286 -5.4156508 3.2823539
11.707557 -6.7294159 2.6552448
11.009585 -6.3282299 1.2329804
7.680542 -4.446836 7.985682
9.2843599 -5.3710971 7.8936453
11.331185 -6.5525823 7.7774014
7.6292572 -4.4065056 4.1602955
9.6353998 -5.562983 3.9614468
9.2491703 -5.3378472 2.6663344
13.853518 -7.9950995 2.3230946
0.059910003 -0.064794771 8.6089449
1.1997259 -0.72480714 8.9108458
2.3794177 -1.4070135 8.884264
3.2595391 -1.9168259 8.9679365
4.2256017 -2.4770648 9.043602
5.2766533 -3.0858212 9.0503702
7.3249364 -4.2785664 10.232957
0.2032328 -0.13592216 4.0676303
0.52206987 -0.32293981 5.6822405
1.9419385 -1.1578807 8.742321
2.804637 -1.659833 8.9166708
3.726274 -2.1957088 9.0066738
4.7571507 -2.7953835 9.0953913
7.2289701 -4.2056184 8.2984123
8.540659 -4.9627614 8.0471191
11.53973 -6.7027726 8.8340635
7.6178584 -4.4212222 4.6970878
8.5018358 -4.9322872 4.0594807
9.5904074 -5.5615864 3.3486257
11.683995 -6.7702417 2.6552448
11.000356 -6.3741117 1.2343216
7.658524 -4.4698544 7.9790306
9.1538229 -5.3383131 7.7994642
11.274727 -6.5725565 7.7546029
7.6216741 -4.4376774 4.1644917
9.6118412 -5.5942068 3.9598031
9.2808981 -5.3994312 2.6804023
0.059711035 -0.065037318 8.613945
1.1971886 -0.72899061 8.9108458
2.6846659 -1.6179579 15.093246
2.3744919 -1.4153106 8.884264
3.2528284 -1.9281921 8.9679365
4.2189908 -2.4930182 9.0479918
5.2779703 -3.1113665 9.0710344
7.2270966 -4.2553201 10.117831
0.20251836 -0.13646844 4.0626383
0.52048731 -0.32447791 5.6772685
1.937885 -1.1646522 8.742321
2.798826 -1.6696128 8.9166708
3.7185869 -2.2087026 9.0066738
4.747364 -2.8119717 9.0953913
8.2274914 -4.8579183 10.436183
7.2142453 -4.2308264 8.2984123
11.393578 -6.6711774 8.7408543
7.5373793 -4.4097576 4.6576686
9.164876 -5.3597927 4.3778958
9.285183 -5.4279819 3.2513335
11.550009 -6.7465663 2.6309967
11.128542 -6.5003834 1.2499692
7.6364384 -4.492774 7.9723797
9.0480204 -5.3190222 7.7258854
11.166234 -6.5616407 7.6963401
9.3519535 -5.4867406 3.8628364
9.333271 -5.4735961 2.7003317
13.981046 -8.1993418 2.3527939
0.059511103 -0.065279268 8.6189451
1.1952986 -0.73357153 8.9157839
2.6850932 -1.6310201 15.127512
2.3682575 -1.4228216 8.8794928
3.2460778 -1.939535 8.9679365
4.2102628 -2.50773 9.0479918
5.2815924 -3.1383963 9.0958319
7.1984167 -4.2723422 10.098644
0.20204076 -0.13717452 4.0626383
0.51935148 -0.32629275 5.6772685
1.9338078 -1.1714095 8.742321
2.7929809 -1.6793724 8.9166708
3.7108543 -2.2216694 9.0066738
4.7375193 -2.828526 9.0953913
8.2454424 -4.9074149 10.480286
7.2270622 -4.2723165 8.3299541
11.492655 -6.7831712 8.8340635
8.9544163 -5.2787447 4.2879906
9.4066963 -5.5431643 3.2992744
11.479826 -6.7594261 2.620738
11.127241 -6.5518236 1.2522048
7.582171 -4.4965477 7.9324737
9.0885124 -5.3856025 7.7759185
12.320786 -7.2893715 6.7052336
9.3002272 -5.5001211 3.8496883
9.3559494 -5.5308771 2.712055
13.973654 -8.2606955 2.3562472
0.059392218 -0.06562265 8.6389446
1.1933914 -0.73814833 8.9207239
2.6845934 -1.6435729 15.156883
2.3632765 -1.4310797 8.8794928
3.2392876 -1.9508542 8.9679365
4.203537 -2.523644 9.0523806
5.2826757 -3.1640432 9.116497
7.1834598 -4.2974434 10.098644
0.20156071 -0.13787894 4.0626383
0.51820934 -0.32810363 5.6772685
1.9307797 -1.1788077 8.7471609
2.7871017 -1.6891116 8.9166708
3.7049408 -2.235734 9.0111752
4.7276173 -2.8450458 9.0953913
8.161397 -4.8960533 10.395756
7.215169 -4.2993431 8.3334579
7.6821418 -4.5721679 7.290751
11.468907 -6.8232465 8.8340635
11.691175 -6.9499664 7.2060294
8.2584219 -4.907371 3.9695747
9.4862728 -5.6347613 3.3331153
11.363227 -6.7442994 2.6002202
11.091455 -6.5830002 1.2508634
7.595273 -4.5402293 7.9624033
9.2015228 -5.496058 7.8877587
7.0561657 -4.212965 4.9149094
12.076978 -7.202157 6.5877423
9.5162277 -5.6727924 3.9450119
9.3031826 -5.5435967 2.7026763
13.880922 -8.2713976 2.3458869
0.059162784 -0.06582956 8.6389446
1.1914668 -0.74272078 8.925663
2.6701753 -1.6475867 15.107932
2.3582666 -1.4393204 8.8794928
3.2324584 -1.9621495 8.9679365
4.1947021 -2.5383019 9.0523806
5.2836442 -3.1897357 9.1371613
7.2342911 -4.3622155 10.190743
0.20107818 -0.13858168 4.0626383
0.51706088 -0.32991052 5.6772685
1.9266531 -1.1855402 8.7471609
2.7811887 -1.69883 8.9166708
3.6971142 -2.2486532 9.0111752
4.7176571 -2.8615308 9.0953913
8.1007414 -4.8982 10.340629
7.2062311 -4.3281751 8.3404675
7.6828241 -4.6089673 7.3064432
11.42709 -6.8524871 8.8203564
11.765638 -7.049932 7.2663178
8.2491951 -4.9409323 3.973321
9.4788942 -5.6752334 3.3373454
11.470296 -6.862103 2.6291316
10.80772 -6.4657197 1.2235917
9.0473127 -5.4511809 9.4888077
10.32156 -6.2140455 8.8560581
7.056191 -4.2464614 4.9250422
9.4963684 -5.7059755 3.9450119
13.65892 -8.2038507 3.9336097
13.84772 -8.3172512 2.3451962
0.058770057 -0.065830477 8.6089449
1.1895249 -0.74728876 8.9306021
2.6600845 -1.6542083 15.083455
2.3532281 -1.4475436 8.8794928
3.2255895 -1.9734209 8.9679365
4.1858163 -2.5529287 9.0523806
5.2844977 -3.2154739 9.1578264
7.2847562 -4.4273939 10.282844
0.20059322 -0.13928273 4.0626383
0.51635426 -0.33200198 5.6822405
1.9225031 -1.1922584 8.7471609
2.7752419 -1.7085278 8.9166708
3.6892424 -2.2615449 9.0111752
4.7076397 -2.8779812 9.0953913
7.6869926 -4.6847396 9.8371315
7.1941304 -4.3551502 8.3439713
7.6633587 -4.6337433 7.3033047
11.338687 -6.8533998 8.7710104
11.907801 -7.1917243 7.3683453
10.585367 -6.390521 5.0840297
9.4672403 -5.713243 3.3401654
11.421032 -6.8868799 2.6235359
10.768026 -6.4931197 1.2218033
9.1143961 -5.5350571 9.5785961
10.28944 -6.2437468 8.847229
7.0413251 -4.2710662 4.9250422
7.4848399 -4.5347414 4.1330209
9.3996487 -5.6926117 3.9137852
13.734152 -8.3144102 3.9629178
13.818604 -8.3655386 2.3451962
0.058458976 -0.065932341 8.5939465
1.1875656 -0.75185221 8.9355421
2.6473925 -1.6591576 15.044293
2.348161 -1.455749 8.8794928
3.2203443 -1.9856938 8.9725389
4.1768794 -2.5675244 9.0523806
5.2804375 -3.2383137 9.1702251
7.2719908 -4.4544697 10.286681
0.2001058 -0.13998209 4.0626383
0.51519227 -0.33380237 5.6822405
1.9183297 -1.1989619 8.7471609
2.7692609 -1.7182049 8.9166708
3.6813257 -2.2744088 9.0111752
4.6975651 -2.8943963 9.0953913
7.4279404 -4.5624962 9.5284176
7.1880178 -4.3858085 8.3544855
7.6105757 -4.6381831 7.2687817
11.318266 -6.895113 8.7737522
11.890194 -7.2378535 7.372983
10.436263 -6.3503175 5.0240927
9.5497007 -5.8085771 3.375416
10.630393 -6.4608331 1.2097322
9.2892799 -5.6857414 9.7814522
10.284823 -6.2901692 8.8619452
7.0153389 -4.2888732 4.9174423
7.135848 -4.3574257 3.9525883
9.4396343 -5.7597036 2.7577753
0.058067337 -0.065929681 8.5639477
1.1855888 -0.75641102 8.9404812
2.6364198 -1.665126 15.014922
2.343065 -1.4639368 8.8794928
3.2133932 -1.9969229 8.9725389
4.167892 -2.5820887 9.0523806
5.2691016 -3.256726 9.1702251
7.1800318 -4.4326806 10.179231
0.19961597 -0.14067973 4.0626383
0.51402396 -0.33559871 5.6822405
1.9141328 -1.2056507 8.7471609
2.7632465 -1.7278609 8.9166708
3.6733642 -2.2872453 9.0111752
4.6874332 -2.9107764 9.0953913
7.0285945 -4.3510652 9.0396204
7.1665888 -4.407136 8.347476
7.5943394 -4.6647205 7.2687817
11.361832 -6.9761486 8.825839
11.838426 -7.2630982 7.3567514
9.1889372 -5.6353793 4.4434524
9.5457258 -5.8519053 3.3810563
11.774803 -7.2127728 2.7130675
10.679968 -6.5421224 1.2173325
9.3742418 -5.7828226 9.8911934
10.293773 -6.3451209 8.8884335
6.963625 -4.2907214 4.8921103
11.924995 -7.3391509 6.5604677
9.255106 -5.6937613 3.8710539
9.3822079 -5.7697034 2.7472243
0.057863574 -0.066166446 8.5689468
1.1835947 -0.76096517 8.9454203
2.6220016 -1.6688509 14.96597
2.3379409 -1.4721066 8.8794928
3.2080588 -2.0091643 8.9771414
4.1588531 -2.5966218 9.0523806
5.2577014 -3.2750988 9.1702251
7.1481867 -4.447557 10.156206
0.19888899 -0.14120758 4.0576468
0.51284933 -0.33739093 5.6822405
1.9088515 -1.2116513 8.742321
2.7571983 -1.7374959 8.9166708
3.6653576 -2.3000538 9.0111752
4.6772442 -2.9271209 9.0953913
6.9817243 -4.3558335 8.9991932
7.2299733 -4.4809723 8.4385948
7.6309614 -4.7239819 7.3189969
11.419192 -7.0663738 8.8888931
7.3105893 -4.5203743 4.5857854
8.7038832 -5.3798041 4.2224345
9.4966745 -5.8675404 3.3711863
11.737014 -7.246089 2.7102695
10.898602 -6.7284803 1.242816
7.4038963 -4.6030941 7.8460107
10.271561 -6.3810143 8.8884335
11.814453 -7.3281026 6.5143104
10.567602 -6.5521731 4.4166989
9.5603199 -5.9253278 2.8034956
0.057632256 -0.066368021 8.5689468
1.1822352 -0.76593733 8.9552994
2.6178744 -1.6790928 14.97576
2.332788 -1.4802587 8.8794928
3.201026 -2.0203505 8.9771414
4.1477365 -2.6098473 9.0479918
5.2462373 -3.2934318 9.1702251
7.1000319 -4.4520483 10.110156
0.19839486 -0.14190097 4.0576468
0.51211262 -0.33947393 5.687212
1.9046104 -1.218307 8.742321
2.7511165 -1.7471098 8.9166708
3.6573069 -2.3128343 9.0111752
4.6669984 -2.9434295 9.0953913
6.9607372 -4.3765688 8.9918432
7.2324362 -4.517518 8.4596214
10.246365 -6.3926544 9.8203468
11.415744 -7.1194677 8.9053421
7.3022852 -4.5505519 4.5904231
7.3629227 -4.5865607 3.5930955
9.4517031 -5.8854408 3.362726
11.71582 -7.2896099 2.7112021
10.904648 -6.7848992 1.2459457
7.631412 -4.7815609 8.1020746
10.156723 -6.3589168 8.8089676
6.9115758 -4.325511 4.8769116
11.723378 -7.3284006 6.4786434
10.756912 -6.7216463 4.5038052
9.593173 -5.9921393 2.8187358
0.057400241 -0.066568792 8.5689468
1.1802049 -0.77048427 8.9602375
2.6102872 -1.687115 14.96597
2.3276067 -1.4883926 8.8794928
3.193954 -2.0315118 8.9771414
4.1386013 -2.6243095 9.0479918
5.2347088 -3.3117244 9.1702251
7.0600624 -4.4613943 10.075619
0.19789834 -0.14259264 4.0576468
0.51092452 -0.34125945 5.687212
1.9003462 -1.2249479 8.742321
2.7450013 -1.7567023 8.9166708
3.6492112 -2.3255866 9.0111752
4.6566954 -2.9597027 9.0953913
6.9883728 -4.4280572 9.0469704
7.240768 -4.5579352 8.4876575
10.171266 -6.3952327 9.7701321
11.401444 -7.1659484 8.9135666
7.2938595 -4.5807257 4.5950608
7.3468676 -4.6122341 3.5930955
9.3823414 -5.8877983 3.3458056
11.686141 -7.3278518 2.7102695
7.6146746 -4.8081698 8.1020746
9.9806356 -6.2972727 8.6765261
7.1443744 -4.5059876 5.0491676
11.809088 -7.4394336 6.5394874
9.0271482 -5.68468 3.8020265
11.872618 -7.4736834 2.0488946
0.057141155 -0.066734001 8.5639477
1.1801045 -0.776308 8.9799948
2.603529 -1.6956606 14.961075
2.322397 -1.4965082 8.8794928
3.1868434 -2.0426486 8.9771414
4.1273975 -2.6374505 9.043602
5.2207441 -3.328464 9.1660919
7.0201139 -4.4705162 10.041081
0.19763231 -0.14345309 4.0626383
0.50973022 -0.34304085 5.687212
1.8960587 -1.2315739 8.742321
2.7388525 -1.7662735 8.9166708
3.6410711 -2.3383105 9.0111752
4.6463356 -2.9759395 9.0953913
6.9728732 -4.4524245 9.0469704
7.2940769 -4.6271214 8.5682631
7.3805165 -4.6765509 7.1275511
11.383426 -7.2101784 8.9190493
7.2853112 -4.6108961 4.5996985
7.3072157 -4.6229792 3.581857
9.4630899 -5.9846139 3.3810563
11.552524 -7.3003707 2.6860213
7.3930888 -4.7044277 7.8859172
9.9142523 -6.3038788 8.6382647
7.4160132 -4.7135773 5.249289
12.016773 -7.628994 6.6674685
8.9275084 -5.6655507 3.7691562
9.8384142 -6.2412267 2.9007978
12.080628 -7.6636329 2.0875726
0.056907862 -0.066933051 8.5639477
1.1760924 -0.77956367 8.9701166
2.5967429 -1.7041795 14.95618
2.3171589 -1.504606 8.8794928
3.1796939 -2.0537601 8.9771414
4.118166 -2.6518419 9.043602
5.209094 -3.3466678 9.1660919
6.974793 -4.4759512 9.9988689
0.19713035 -0.14414208 4.0626383
0.50852966 -0.34481806 5.687212
1.8927999 -1.2388732 8.7471609
2.7341173 -1.7767636 8.9213629
3.6328866 -2.3510058 9.0111752
4.6381102 -2.9935544 9.0996571
6.9487362 -4.4712338 9.0359449
7.3049221 -4.6698413 8.599803
7.4035134 -4.7274222 7.1652126
11.446304 -7.3061137 8.987586
7.2691722 -4.6362987 4.5996985
7.2519445 -4.6235366 3.563127
9.5837307 -6.1078463 3.4304075
11.381951 -7.248301 2.6533797
9.3504667 -5.9959326 9.9743309
8.4389791 -5.4072948 7.3815355
11.788211 -7.5504427 8.311902
7.1003747 -4.5426006 3.9840591
10.924627 -6.9865723 4.6024156
9.8042831 -6.2676778 2.8972812
11.790946 -7.5377169 2.0440598
0.056856792 -0.067375891 8.5989466
1.1785324 -0.78711772 9.0096302
2.5907784 -1.7132335 14.95618
2.311893 -1.5126851 8.8794928
3.1708682 -2.063781 8.9725389
4.1088843 -2.6662006 9.043602
5.1950178 -3.3633008 9.1619587
6.9483604 -4.4933081 9.9835186
0.19662601 -0.14482932 4.0626383
0.50732291 -0.34659106 5.687212
1.8884639 -1.2454729 8.7471609
2.7278986 -1.7862964 8.9213629
3.6246581 -2.3636727 9.0111752
4.6276326 -3.0097258 9.0996571
6.9160185 -4.484395 9.0138941
7.2675915 -4.6817927 8.5752716
7.3640547 -4.7384934 7.1432433
11.392597 -7.3279276 8.9656544
7.2753034 -4.6760149 4.6136112
9.4452972 -6.0660858 3.3895166
11.331776 -7.2720685 2.647784
8.956295 -5.7873878 9.5785961
8.4370308 -5.4476824 7.3962512
11.801624 -7.6172605 8.3397675
7.0997324 -4.5771952 3.9924514
10.820786 -6.9735022 4.5695453
9.7823458 -6.3018627 2.8972812
11.040199 -7.1121869 1.9238815
11.113942 -7.1569543 0.62691623
0.05672529 -0.067714073 8.6189451
1.1706213 -0.78775531 8.9701166
2.5847824 -1.7222666 14.95618
2.3065984 -1.5207459 8.8794928
3.163645 -2.0748367 8.9725389
4.1015568 -2.6818378 9.0479918
5.1832461 -3.3814144 9.1619587
6.8708692 -4.4772868 9.895256
0.19611926 -0.1455148 4.0626383
0.50610995 -0.34835982 5.687212
1.8851516 -1.252753 8.7519999
2.7216465 -1.7958077 8.9213629
3.6182044 -2.377506 9.0156765
4.6170988 -3.0258613 9.0996571
6.8861332 -4.4992375 8.9955187
7.1794143 -4.6605296 8.4911623
7.2788863 -4.7196994 7.0773358
11.370457 -7.3699245 8.9683952
7.221755 -4.6773009 4.5904231
9.6555872 -6.2512398 4.7356453
9.3394928 -6.0442858 3.359906
11.483692 -7.4262815 2.6878867
7.4967365 -4.8814201 8.0488663
8.4247398 -5.4815087 7.4021378
7.337338 -4.7721748 5.2290239
11.829659 -7.6851816 6.6087227
8.301362 -5.3909492 3.5341346
9.6583643 -6.2698069 2.8679731
11.501281 -7.466156 2.0046911
10.967357 -7.1168394 0.62107182
0.056643896 -0.068122417 8.6489439
1.1607912 -0.78703868 8.9157839
2.5787547 -1.7312787 14.95618
2.3012762 -1.5287882 8.8794928
3.156383 -2.0858676 8.9725389
4.0921707 -2.6961384 9.0479918
5.171411 -3.3994865 9.1619587
6.8337646 -4.4871697 9.8645554
0.19561012 -0.1461985 4.0626383
0.50489092 -0.35012436 5.687212
1.8807672 -1.2593259 8.7519999
2.7153614 -1.8052971 8.9213629
3.6098831 -2.3901215 9.0156765
4.6065083 -3.0419593 9.0996571
7.79914 -5.1347184 10.200973
7.1332574 -4.6660395 8.4561167
10.028778 -6.5526099 9.7418852
11.29915 -7.3798451 8.9327564
7.209094 -4.7049022 4.592742
9.414773 -6.139739 3.3937466
11.42066 -7.4421844 2.679493
7.4858952 -4.9116554 8.0555172
8.452879 -5.5419102 7.4433417
7.3350563 -4.8072095 5.2391562
11.77618 -7.7090273 6.5940366
8.310153 -5.437993 3.545639
9.6404877 -6.3061433 2.8691454
11.048297 -7.2270398 1.933551
10.896452 -7.1250038 0.61885494
0.05640576 -0.068319723 8.6489439
1.1612444 -0.79327798 8.9404812
2.5726957 -1.7402695 14.95618
2.2959256 -1.5368119 8.8794928
3.1490827 -2.0968726 8.9725389
4.0827346 -2.7104065 9.0479918
5.159513 -3.4175177 9.1619587
6.8501372 -4.5322199 9.9106064
0.19509861 -0.1468804 4.0626383
0.50366569 -0.35188463 5.687212
1.8774018 -1.2665862 8.7568398
2.7090433 -1.8147644 8.9213629
3.6015182 -2.4027081 9.0156765
4.5958619 -3.0580206 9.0996571
7.7444434 -5.1375475 10.153195
7.2300763 -4.765491 8.5892897
10.009095 -6.5897183 9.7450237
7.1334081 -4.6910939 4.5556412
9.1507235 -6.0154529 4.5127544
9.3932838 -6.1725655 3.3937466
11.406931 -7.4900942 2.682291
7.4780483 -4.943934 8.0654936
7.3254261 -4.8375354 5.2442226
7.1574907 -4.7212634 4.0511966
8.2911205 -5.4669676 3.545639
9.378974 -6.1819329 2.7999787
11.370317 -7.4944863 1.9915681
10.988325 -7.2399597 0.62449783
0.056013089 -0.068304375 8.6189451
1.1546285 -0.7946828 8.9108458
2.5666053 -1.7492394 14.95618
2.2905471 -1.5448167 8.8794928
3.1417441 -2.1078522 8.9725389
4.0732484 -2.7246413 9.0479918
5.1475525 -3.4355068 9.1619587
6.876946 -4.5845504 9.9720058
0.19458471 -0.14756052 4.0626383
0.50243431 -0.35364059 5.687212
1.8740088 -1.2738388 8.7616796
2.702692 -1.8242098 8.9213629
3.5931091 -2.4152648 9.0156765
4.5851593 -3.0740445 9.0996571
7.7602844 -5.1871567 10.197297
8.3393126 -5.5384722 9.9175129
7.1609507 -4.7504778 7.0114284
11.299627 -7.4932113 8.9738789
7.18715 -4.7624569 4.5996985
13.129875 -8.6970463 6.4513435
9.347682 -6.1894264 3.3852866
11.380716 -7.5298657 2.682291
9.2071104 -6.1333675 9.9344254
7.1469951 -4.7556133 5.1302295
7.156086 -4.7562675 4.0595889
8.2798529 -5.501102 3.5489264
9.4383173 -6.2684159 2.8234251
11.368838 -7.5505681 1.9957122
10.962986 -7.2782726 0.62449783
0.055672258 -0.068357915 8.5989466
1.9696636 -1.3660476 15.238035
2.5604837 -1.7581879 14.95618
2.2851408 -1.5528028 8.8794928
3.1359856 -2.1199002 8.9771414
4.0637131 -2.738843 9.0479918
5.1355286 -3.453454 9.1619587
6.8928289 -4.6299744 10.018056
0.19406845 -0.14823887 4.0626383
0.50076216 -0.35508361 5.6822405
1.8716248 -1.2817931 8.7713585
2.6963079 -1.8336327 8.9213629
3.582854 -2.4265718 9.0111752
4.5744009 -3.0900309 9.0996571
7.7871218 -5.2445145 10.2561
8.3406763 -5.5814323 9.9420443
7.1054935 -4.7494893 6.9737668
7.873157 -5.2606382 6.2927246
7.1704822 -4.7875156 4.5996985
9.062233 -6.0483074 4.4902782
9.3180389 -6.2166944 3.3824666
11.317577 -7.5450225 2.6738973
9.2476482 -6.2070856 10.000935
7.0873847 -4.7517252 5.0998316
7.1130438 -4.7635412 4.0449028
8.3076878 -5.5614939 3.5686481
9.5294876 -6.3770146 2.85625
11.523499 -7.7113876 2.0261021
10.808785 -7.2303848 0.61825037
0.05538252 -0.068480864 8.5889463
1.961062 -1.370244 15.208399
2.5551682 -1.7676942 14.961075
2.2797067 -1.56077 8.8794928
3.128567 -2.1308339 8.9771414
4.0541277 -2.7530115 9.0479918
5.1234426 -3.4713595 9.1619587
6.9350238 -4.6935301 10.102482
0.19354983 -0.14891538 4.0626383
0.49951965 -0.3568294 5.6822405
1.8692082 -1.2897463 8.7810364
2.6913145 -1.8440089 8.9260559
3.5743618 -2.4390635 9.0111752
4.5635872 -3.1059797 9.0996571
7.7210774 -5.2393031 10.193622
8.3773232 -5.6483927 10.008631
7.8582144 -5.2904239 6.2954659
7.201508 -4.8446598 4.6298428
12.899573 -8.6746693 6.3689303
8.9339972 -6.0056448 3.2541535
11.283016 -7.5790043 2.6720321
11.219294 -7.5362039 1.3063012
9.1919022 -6.2163196 9.9643536
10.722326 -7.245882 9.5064974
7.0028849 -4.7305875 5.0517011
7.2393341 -4.8848062 4.1246285
8.2803946 -5.5851779 3.565361
13.976566 -9.4237518 4.1563497
11.578629 -7.8069339 2.0399158
10.779339 -7.2652788 0.61804885
0.055193681 -0.068744913 8.5989466
1.9537257 -1.3752917 15.188643
2.5489821 -1.7766026 14.961075
2.2742445 -1.5687182 8.8794928
3.1211097 -2.1417418 8.9771414
