# .PCD v0.7 - Point Cloud Data file format
VERSION 0.7
FIELDS x y z
SIZE 4 4 4
TYPE F F F
COUNT 1 1 1
WIDTH 1562
HEIGHT 1
VIEWPOINT 0 0 0 1 0 0 0
POINTS 1562
DATA ascii
11.939267 4.1928091 9.297533
2.2136242 0.73025274 14.818198
2.9885354 1.0013437 15.176465
4.0778818 1.3883797 13.818496
2.9243124 1.0036119 7.343246
5.6042981 1.9319937 10.930906
4.1599512 1.4389576 6.5375371
5.011097 1.7362881 6.4261522
3.1277268 0.99382603 30.564615
3.1829879 1.070763 12.967138
3.5951946 1.2226374 10.380814
3.7522523 1.2840525 8.2639732
3.7531662 1.2894681 6.5614262
4.5268636 1.5587901 6.4144683
5.679791 1.9601979 6.5919609
6.1801152 2.1534033 6.5110941
6.7426596 2.3533609 5.8407841
6.4764347 2.2465093 6.1865864
11.827824 4.1073518 9.200408
2.2161598 0.72252131 14.818198
2.9891126 0.98994541 15.161778
4.0841174 1.3746126 13.823267
2.9388983 0.99716395 7.3708606
5.6268768 1.9178276 10.96163
4.1862502 1.4317126 6.570601
5.017127 1.7187855 6.4261522
3.1316855 0.98306173 30.569588
3.1843209 1.0588528 12.95746
3.6027119 1.21118 10.390199
3.7732086 1.2765278 8.299983
3.7749305 1.2822304 6.5912876
4.5008998 1.5322973 6.3705783
5.6416788 1.9250329 6.5405083
6.228056 2.1457574 6.5531487
6.7397947 2.3260009 5.8313684
6.4877691 2.2251003 6.1899118
11.700642 4.0174732 9.0915117
2.2171891 0.71430469 14.808319
3.0022273 0.98267221 15.210732
4.0860586 1.3594058 13.813724
2.9516227 0.99000531 7.3938732
5.6494246 1.9035274 10.992353
4.1885562 1.4161898 6.5664678
5.0352397 1.7053745 6.4415021
3.135098 0.9721241 30.569588
3.1915801 1.0489081 12.971978
3.6118305 1.2002293 10.404278
3.779706 1.2640393 8.3044844
3.7793834 1.2690456 6.5912876
4.5147886 1.51946 6.3825479
5.6387277 1.9020774 6.5294833
6.2692657 2.1355028 6.5881939
6.7331386 2.2974329 5.8188148
6.4742804 2.1952465 6.1699591
11.657182 3.9571171 9.0473642
2.2122648 0.70420498 14.758926
3.0056391 0.97218651 15.210732
2.9587691 0.98092562 7.4030786
4.2682033 1.4265356 6.6821904
5.0624371 1.6949106 6.4683642
3.1389821 0.96133071 30.57456
3.1988084 1.0389256 12.986497
3.615998 1.1876143 10.404278
3.7530913 1.2405903 8.2369661
3.7689388 1.2509165 6.5656924
4.5400801 1.5103492 6.4104786
5.5295534 1.8437785 6.3971772
6.3037195 2.1227107 6.61623
6.7263637 2.2689395 5.8062606
6.4394212 2.1583941 6.1300526
11.751395 3.9434052 9.1091709
2.2080381 0.69438142 14.714473
2.9954355 0.95735025 15.142199
2.9677448 0.97241634 7.4168863
4.2157302 1.3877825 8.2008991
4.265141 1.4089801 6.6697917
5.0896244 1.6842781 6.4952273
3.1423185 0.95036775 30.57456
3.2107937 1.0304416 13.020372
3.6151974 1.1733868 10.390199
3.790508 1.2382975 8.3089857
3.768326 1.236127 6.5571604
4.5997124 1.512374 6.486289
5.5069771 1.8149154 6.3641005
6.3043242 2.0984414 6.6092215
6.697319 2.2331347 5.7748766
6.4681821 2.1429489 6.1500053
11.761251 3.9010887 9.1062269
2.2045121 0.68482637 14.674959
2.9851654 0.94259709 15.073665
2.9748385 0.96325457 7.4260912
4.2319365 1.3767627 8.2228451
4.2753839 1.3958302 6.6780572
5.1167974 1.6734761 6.52209
3.1456168 0.93939322 30.57456
3.2431276 1.0283443 13.136518
3.6159849 1.1597065 10.380814
3.8238108 1.2344208 8.3720026
3.7651749 1.220553 6.5443625
4.6336203 1.50562 6.5261889
5.455256 1.7767838 6.2979474
6.2777338 2.0652776 6.5741758
6.7050734 2.209743 5.7748766
11.744071 3.8499377 9.0826817
2.2120893 0.67872185 14.709535
2.9874656 0.93186796 15.06877
4.6182833 1.4651601 15.53641
2.9819045 0.95405519 7.4352961
4.2321568 1.3605163 8.2140665
4.3043327 1.3886735 6.7152543
5.1470075 1.6634904 6.5527897
3.1488767 0.92840725 30.57456
3.2898803 1.0305418 13.310738
3.6249461 1.1486408 10.394892
4.0997906 1.3077222 8.9616613
3.7619612 1.205016 6.5315642
4.6359787 1.4885155 6.5221987
5.4646521 1.7587693 6.3016229
6.2815132 2.0422492 6.5706716
6.7127461 2.1863244 5.7748766
6.8950672 2.2310779 6.5357637
11.772819 3.8139024 9.0944548
2.2218814 0.67324829 14.758926
2.9877808 0.92053497 15.054084
4.6319156 1.4517087 15.565041
2.9926679 0.94599569 7.4537063
4.2957482 1.3693669 6.6945891
5.1772089 1.6533139 6.5834899
3.1520982 0.91740996 30.57456
3.2730434 1.0127363 13.228468
3.6108181 1.1303103 10.343272
3.8572512 1.2155468 8.4260168
3.7437665 1.1847954 6.4931712
4.6411462 1.4723238 6.5221987
5.4804506 1.7427654 6.3126483
6.2071157 1.9941313 6.4865623
6.7203364 2.1628792 5.7748766
6.9561601 2.224052 6.5856466
11.832255 3.7875717 9.1297722
2.222729 0.66504318 14.749049
2.9968207 0.91187811 15.083455
4.65977 1.4425938 15.641393
2.9959519 0.9355436 7.4537063
3.7730958 1.1839526 7.3143048
4.3327112 1.3645067 6.7441845
5.1737781 1.6323389 6.5719771
3.1547689 0.90625441 30.569588
3.2609313 0.99653035 13.165556
3.6328769 1.123306 10.394892
3.7554636 1.1690779 8.196455
3.7553468 1.1740544 6.505969
4.5801244 1.4353893 6.4304285
5.4606261 1.7154959 6.283247
6.1868453 1.9638209 6.4585261
6.7167177 2.1358693 5.765461
7.0101657 2.2143769 6.6288776
11.976436 3.7876861 9.2298403
2.2354698 0.66036075 14.818198
3.0048614 0.90287632 15.107932
4.6190977 1.4123539 15.488689
3.0141339 0.92968607 7.4905267
3.7772057 1.1707748 7.3143048
4.3347607 1.3485385 6.7400517
5.1794443 1.6142691 6.5719771
3.1579132 0.89523667 30.569588
3.2679999 0.98623085 13.180074
3.6334751 1.1096103 10.385507
3.744956 1.1514835 8.1649466
4.5678358 1.4140466 6.4064884
5.4342022 1.6863768 6.2464952
6.2140803 1.9486152 6.4795532
6.7501259 2.1205761 5.7874303
7.0142879 2.1887813 6.6255522
11.974153 3.7410364 9.2180681
2.2467124 0.65516257 14.877469
3.0158041 0.89469814 15.147094
3.0192301 0.9197284 7.4951291
3.7950106 1.1617891 7.3406401
4.2937131 1.3193488 6.6697917
5.1053996 1.5716615 6.4722018
3.1610188 0.88420808 30.569588
3.2653992 0.97302288 13.155876
3.7302053 1.1327119 8.1244354
4.641902 1.419237 6.5022488
5.4044008 1.6564696 6.2060685
8.0263309 2.4861493 8.3369627
6.8318357 2.1200728 5.8501997
6.9540911 2.143388 6.5623674
11.743814 3.6241271 9.0326481
2.256453 0.64946431 14.926862
3.0345438 0.88874346 15.225417
3.8735449 1.1549073 12.969083
3.0336473 0.91255993 7.5227442
4.1016569 1.2400148 7.9199982
4.2579007 1.2920963 6.6077971
5.0525889 1.5361172 6.3992896
3.1645999 0.87331045 30.57456
3.271188 0.96232796 13.165556
4.2630076 1.2693697 12.149986
3.7174544 1.1146824 8.0884266
4.6554818 1.405638 6.5142193
5.3809471 1.6287555 6.1729918
7.8814993 2.41117 8.1792583
7.0401521 2.1578047 6.0196757
7.0008221 2.1310608 6.598948
2.2714133 0.64519155 15.010829
3.0474095 0.88097262 15.27437
3.8761206 1.1409577 12.964311
4.1403837 1.235965 7.9858341
4.2462115 1.2723794 6.5829997
5.0149417 1.5055685 6.3455644
3.167629 0.86225861 30.57456
3.2696986 0.94950157 13.146197
4.2641015 1.253508 12.140601
3.7275848 1.1035531 8.1019297
4.6776862 1.3945439 6.5381594
5.3606143 1.6021961 6.1435905
6.5379786 1.9752265 6.7914577
7.1370506 2.1602793 6.0949988
2.2736514 0.63725895 15.010829
3.0759239 0.87759125 15.401645
3.8815134 1.1278369 12.969083
3.0174472 0.88476348 7.467514
4.253325 1.2583479 6.5871325
4.9863625 1.4780344 6.3033524
3.1706197 0.85119617 30.57456
3.276618 0.93912131 13.160716
4.2535353 1.234288 12.098367
3.756489 1.0978622 8.1559439
5.8948236 1.7305486 10.119215
4.6709623 1.3748041 6.5221987
5.3369102 1.5748394 6.1105142
6.3842134 1.9044793 6.6267443
7.3608484 2.1999996 6.277029
7.0620618 2.0959446 6.6421795
2.2788577 0.63014644 15.030586
3.0779886 0.86657315 15.39675
3.8811214 1.1130466 12.954766
3.0055039 0.86988038 7.4306936
3.872952 1.1267515 7.4591446
4.3360267 1.2663703 6.7069883
4.9914918 1.4606197 6.3033524
3.1735716 0.84012347 30.57456
3.2617331 0.92254734 13.088124
4.2727485 1.2237086 12.140601
3.7602985 1.0847429 8.1559439
5.2968068 1.542927 6.059062
6.2505627 1.8408753 6.4830575
7.3759489 2.1764951 6.2833061
6.9976721 2.0502844 6.5756698
2.2840421 0.62300539 15.050343
3.0809948 0.85582358 15.39675
3.8849833 1.0994922 12.954766
3.0085218 0.85938394 7.4306936
3.8607478 1.1085991 7.428421
4.3863869 1.2644773 6.7772484
4.9965601 1.4431872 6.3033524
3.1764848 0.82904053 30.57456
3.2855158 0.91689897 13.170394
4.2138896 1.1909536 11.962276
6.0396581 1.7273604 10.345309
5.3021603 1.5244284 6.059062
6.1439433 1.7861924 6.3674078
7.4694524 2.175771 6.3554907
7.0227199 2.0310321 6.5922971
2.2892044 0.61583591 15.070101
3.0682507 0.8407594 15.318426
3.8916731 1.0867273 12.964311
3.0058622 0.84728718 7.4168863
3.8069873 1.0787929 7.3186941
4.3528814 1.2383784 6.7193866
5.0354738 1.4354022 6.3455644
3.1793594 0.81794751 30.57456
3.2935441 0.9067592 13.189753
2.6455193 0.73777801 7.5229192
6.0481615 1.7069759 10.349575
4.3168783 1.2216182 6.0154657
5.3107104 1.5068364 6.062737
6.0575862 1.7381783 6.2727847
7.3947048 2.126024 6.2864447
7.123117 2.03315 6.6787601
2.2973485 0.60943443 15.109614
3.0554397 0.82579464 15.240103
3.8954425 1.0731362 12.964311
2.9862146 0.83050871 7.3616557
3.8130362 1.0661423 7.3230829
4.3192477 1.2125291 6.6615252
5.0805655 1.4290988 6.395452
3.1821952 0.80684447 30.57456
3.3136718 0.89986801 13.257504
2.65307 0.72991198 7.5369973
6.0892572 1.695648 10.409299
4.329823 1.2089731 6.0274363
5.3192029 1.4892033 6.0664124
5.8920493 1.6684415 6.0975575
7.330935 2.0800128 6.2268138
7.1301703 2.0082734 6.6787601
2.3002136 0.60160804 15.114553
3.0583036 0.81512415 15.240103
3.904927 1.0610975 12.983398
2.9627187 0.81284416 7.2972202
3.8167343 1.0528259 7.3230829
4.1715851 1.1553849 6.4300804
5.1411161 1.4267834 6.4645276
3.1849923 0.79573166 30.57456
3.3228636 0.88992119 13.281702
2.6572671 0.72109848 7.5416903
4.3567452 1.1911527 9.4027805
6.1152582 1.6799088 10.443426
4.3340168 1.1938517 6.0274363
5.3276367 1.4715295 6.0700879
5.8669248 1.6392276 6.0660167
7.3306551 2.0523119 6.2205377
7.0579934 1.9613788 6.6055994
2.3045566 0.59415668 15.129371
3.0640845 0.80521983 15.254788
2.3067195 0.61823565 7.6817241
2.9598806 0.80096662 7.2834129
3.8203862 1.0394967 7.3230829
4.1104436 1.1230179 6.3308892
5.1491561 1.409675 6.4683642
3.1882679 0.78473639 30.579533
3.330811 0.87960029 13.301059
2.6597681 0.71181846 7.5416903
4.3566728 1.174804 9.3937778
6.0304632 1.6339986 10.289853
4.3323421 1.1771357 6.0194559
5.3916178 1.4689642 6.136241
5.872611 1.6187382 6.0660167
7.5103588 2.074378 6.3649063
6.9891777 1.9160004 6.5357637
2.3036044 0.58534372 15.109614
3.0777192 0.7973274 15.308637
2.3204091 0.61323041 7.7199001
2.9834223 0.79617018 7.3340406
3.7707889 1.0118791 7.2221346
4.0735812 1.097681 6.2688951
5.1571398 1.3925281 6.4722018
3.1915057 0.77372801 30.584503
3.3362942 0.86860156 13.310738
2.6722479 0.70517123 7.5698466
4.3565392 1.1584704 9.3847752
5.9479427 1.5893748 10.140545
4.3247824 1.1588863 6.0034957
5.4752889 1.4712485 6.2244449
5.8747845 1.5972935 6.0625119
7.6414833 2.081913 6.4684753
6.9814062 1.8876935 6.5224619
2.2935734 0.57428092 15.030586
3.0725911 0.78456461 15.269474
2.3210909 0.60475069 7.7151279
2.9861832 0.78575128 7.3340406
3.7719824 0.99809778 7.2177453
4.0773883 1.083455 6.2688951
5.1588717 1.3736931 6.4683642
3.1941872 0.76258284 30.584503
3.3307831 0.85476375 13.276862
2.7314765 0.7106089 7.7294011
4.3605566 1.1432562 9.3847752
4.3171477 1.1407042 5.987536
5.5557637 1.4720978 6.3089733
5.8975477 1.5813951 6.0800352
7.5998373 2.0420966 6.4276757
6.984345 1.8623505 6.5191364
2.2955639 0.56627136 15.030586
3.0723486 0.77308923 15.254788
3.9106863 1.0042455 12.954766
2.9926898 0.77630359 7.343246
3.8519194 1.004874 7.3625851
4.0757017 1.0677894 6.2606297
5.1605363 1.3548633 6.4645276
3.1968296 0.75142843 30.584503
3.3337467 0.84313196 13.276862
2.7590146 0.70749855 7.7997923
4.3624125 1.1274832 9.3802738
5.7796712 1.5012614 9.8376637
4.332767 1.1286658 6.0034957
5.6002297 1.4629775 6.353075
5.930614 1.568092 6.1080713
7.5203815 1.9926267 6.3554907
7.0052471 1.8417566 6.5324378
2.2886374 0.55863482 14.976254
3.0712643 0.76484185 15.240103
3.9160221 0.9954223 12.964311
2.9983623 0.76996052 7.3524508
3.9308872 1.015221 7.5074244
4.1055369 1.0648922 6.301959
5.1545248 1.3398308 6.4530149
3.1986561 0.74361485 30.584503
3.3345773 0.83467835 13.272022
4.3588281 1.1152021 9.3667707
5.7833219 1.4871346 9.8376637
4.3501015 1.1218376 6.0234461
5.6398916 1.4586264 6.3935018
5.9755545 1.5654768 6.1501255
7.4646478 1.9597447 6.3052754
7.0567007 1.8368613 6.5756698
2.2748988 0.54603666 14.87253
3.0712116 0.75231689 15.225417
3.9299521 0.98291343 12.997714
3.006979 0.75987774 7.3662581
3.9324353 0.99953008 7.5030355
4.1314082 1.0546883 6.3350224
5.1689472 1.3224121 6.4645276
3.2009683 0.73120886 30.579533
3.3145676 0.81615955 13.180074
2.8956726 0.72317618 8.1705208
4.3609667 1.0979257 9.3622694
5.9179349 1.4975455 10.055226
4.3923454 1.1147619 6.0753164
5.7045884 1.4520121 6.4596548
6.0126009 1.5505354 6.1816664
7.4495063 1.9252245 6.2864447
7.1034884 1.8199452 6.6122503
2.261862 0.53706759 14.778684
3.0730405 0.74481028 15.225417
3.9294441 0.97259063 12.98817
3.0143812 0.75447601 7.3800659
3.9091456 0.98417383 7.4547563
4.1938105 1.060488 6.4259477
5.1685982 1.3107955 6.46069
3.2024927 0.72450316 30.579533
3.2794955 0.80085081 13.034891
4.4062901 1.0913931 12.398703
5.912951 1.4853083 10.042428
4.4644113 1.1247609 6.1710768
5.7071137 1.4420534 6.4596548
6.0442839 1.5418408 6.209703
7.416811 1.8960749 6.2550602
7.1395373 1.8145815 6.6421795
2.2644796 0.52934575 14.783624
3.0746312 0.73384249 15.220522
3.9255641 0.95710075 12.964311
3.0228169 0.74482477 7.3938732
3.9034278 0.96753478 7.4371991
4.2522826 1.0587062 6.5086064
5.1300545 1.2800764 6.4069643
3.205251 0.71220118 30.579533
3.2851284 0.78826606 13.04457
2.8932061 0.70434785 8.1517496
5.3873816 1.3293289 9.1465826
4.4866343 1.1103939 6.1950173
5.6538782 1.4034342 6.3935018
6.0772986 1.5276881 6.2377391
7.4233842 1.8701738 6.2550602
7.1177845 1.7786655 6.6155753
2.2579839 0.51952261 14.729291
3.0781655 0.72333843 15.225417
2.4977396 0.59980524 8.2591343
3.0348914 0.73657215 7.4168863
3.8928213 0.95049518 7.4108653
4.2586851 1.0445267 6.5127392
5.109591 1.2560406 6.3762641
3.2077177 0.70100838 30.579533
3.2695103 0.77245975 12.971978
2.8369124 0.68016505 7.9875031
5.4426742 1.3228337 9.2319012
4.5256128 1.1032897 6.2428975
5.6455703 1.3804691 6.3788013
6.0929794 1.509037 6.2482529
7.5205317 1.8667544 6.3303828
7.1420779 1.7582718 6.6322031
2.2675853 0.50882846 14.773745
3.0740943 0.70485353 15.186255
2.4937835 0.58414423 8.2352743
3.0484631 0.72186124 7.439899
3.9143775 0.93262398 7.4415884
4.2701044 1.0212904 6.5210052
5.0855713 1.2191192 6.3378897
3.2120588 0.68084002 30.579533
3.3588307 0.7713086 13.305899
3.7419457 0.87228495 10.502826
3.7145283 0.87270105 7.9533892
4.5531673 1.0789047 6.2708273
5.641408 1.3398627 6.3641005
6.1527886 1.4897015 6.3008213
7.5948272 1.8416302 6.3837366
7.1926255 1.7241848 6.6687841
2.2662251 0.50063604 14.753987
3.0724418 0.69375879 15.166675
3.9296918 0.90739179 12.940451
3.0602283 0.71450126 7.4629116
3.9849021 0.93620569 7.5688715
4.284071 1.0112019 6.5375371
5.0735703 1.200335 6.3187017
3.2142344 0.67309856 30.584503
3.3925757 0.77033401 13.431724
4.2350874 0.97631985 11.873114
3.7334619 0.86821508 7.989399
5.6114616 1.3121015 9.4963884
4.5556035 1.0685712 6.2708273
5.6244016 1.3233857 6.3420496
6.1857033 1.4748318 6.3288574
7.6501074 1.8281956 6.4245372
7.1862154 1.7027661 6.6588073
2.2679589 0.49272233 14.753987
3.0649047 0.68082249 15.117722
3.9328353 0.89366907 12.940451
3.0703201 0.70556468 7.4813213
4.1304846 0.95520401 7.8366055
4.2985387 0.99878895 6.554069
5.0777292 1.1826177 6.3187017
3.2165644 0.66187471 30.584503
3.4197791 0.7639668 13.528513
2.7894738 0.63285857 7.8326416
3.7364697 0.85517758 7.989399
5.6160073 1.2925057 9.4963884
4.4712253 1.0323277 6.1511269
5.612473 1.2999202 6.3236737
6.2533078 1.4679 6.3919396
7.6564422 1.8014807 6.4245372
7.1666617 1.6717339 6.635529
2.2688155 0.48876327 14.753987
3.0560269 0.67381561 15.06877
3.9720938 0.89602929 13.064523
3.0808256 0.70345122 7.5043344
4.1948371 0.96391624 7.955111
4.3107233 0.99607056 6.570601
4.9979835 1.1576099 6.2189269
3.2171407 0.65906751 30.584503
3.4264462 0.76294476 13.55271
2.8235788 0.63852221 7.9264975
3.7496512 0.85612833 8.016407
5.8988342 1.3543419 9.9699078
4.4216685 1.019261 6.0832963
5.5997148 1.294906 6.3089733
6.252387 1.4561749 6.3884349
7.682004 1.7947646 6.4433675
7.0335526 1.6342143 6.512485
2.2727883 0.4813233 14.768806
3.0475297 0.66023946 15.014922
3.9709787 0.88049549 13.050206
3.0854099 0.6920439 7.5089359
4.1985073 0.94780213 7.955111
4.3311524 0.9824931 6.5953984
4.9338298 1.1219028 6.1345019
3.2199857 0.64502388 30.584503
3.4188197 0.74498022 13.509154
2.8213923 0.62458384 7.9124188
3.6580369 0.81709582 7.8138518
6.0272923 1.3539655 10.174672
4.3854437 0.98836631 6.0274363
5.5894418 1.263787 6.290597
6.2191954 1.4255766 6.3498855
6.9568839 1.5844395 6.4359989
2.2774973 0.4740198 14.788563
3.0398567 0.64747715 14.96597
3.9725699 0.86631089 13.045434
3.0916224 0.68211132 7.5181413
4.3455415 0.9698202 6.6119299
4.7406564 1.0605897 5.8927388
3.2222178 0.63378006 30.584503
3.4300029 0.73488468 13.54303
2.8235555 0.61473161 7.9124188
3.61409 0.79404587 7.7148256
4.3859253 0.97240001 6.0234461
5.5838919 1.2420604 6.279572
6.2276115 1.4046434 6.3533893
6.9878759 1.5658606 6.4592772
2.2875121 0.46777827 14.842894
3.0420985 0.6368621 14.96597
3.9726508 0.85181296 13.03589
3.1569898 0.68498367 7.6700249
3.9219012 0.85663432 7.4240317
4.3489003 0.95464551 6.6119299
4.7286777 1.040591 5.8735514
3.2244105 0.62252855 30.584503
3.9983475 0.84203696 15.769166
2.8290591 0.60559416 7.9218044
3.6572685 0.79015917 7.8003478
4.1226382 0.89594287 6.9709554
4.4099011 0.96157771 6.0513759
5.6080647 1.2269086 6.3016229
7.0078845 1.5446736 6.4725795
2.2959871 0.46116671 14.887347
3.041311 0.62562406 14.951284
3.9799817 0.83886403 13.050206
3.1440761 0.67069936 7.6332045
3.8803773 0.83338505 7.3406401
4.3384523 0.93649054 6.5912652
4.816865 1.0423818 5.9771643
3.2265637 0.61126947 30.584503
4.0024934 0.82832968 15.774004
2.834533 0.59642565 7.9311891
3.8282313 0.81311512 8.1559439
4.1027861 0.87664253 6.9325619
4.4161773 0.94681019 6.055366
5.6288853 1.2108901 6.3199992
6.8470111 1.4941901 6.9666848
7.0424256 1.5265297 6.4991837
2.3036816 0.45435145 14.926862
3.0414803 0.6146009 14.941494
4.0048108 0.82950664 13.121786
3.985806 0.83569366 9.6537132
3.873889 0.81785613 7.3230829
4.3196735 0.916668 6.5582018
4.8298798 1.0275623 5.9886765
3.2286777 0.60000294 30.584503
3.4769273 0.70693839 13.697891
2.8281481 0.58478081 7.9077258
3.8289151 0.79930234 8.1514425
4.1262398 0.86660373 6.9666896
4.4312496 0.93387443 6.0713263
6.904489 1.481503 7.0192537
7.0842285 1.5097197 6.5324378
2.3067791 0.44660252 14.93674
3.0366158 0.60259354 14.907228
3.9915915 0.81224859 13.069294
3.9791312 0.81980455 9.6307001
3.9564526 0.82086951 7.472312
4.3008084 0.89698792 6.5251379
4.8522615 1.0146326 6.0117016
3.2307525 0.58872914 30.584503
4.0020151 0.79913664 15.749807
2.828481 0.57456177 7.9030328
3.8231516 0.78418255 8.1334381
4.1113605 0.84850556 6.9368281
4.4462848 0.92084497 6.0872865
6.9619603 1.4684325 7.0718217
7.0894556 1.4849819 6.5324378
2.3083241 0.43854764 14.93674
3.0387006 0.59199011 14.907228
3.8963301 0.77871358 12.749571
3.8935845 0.79366136 7.3494172
4.3066707 0.88253474 6.5292711
4.7772822 0.98156255 5.9157643
3.2338376 0.57763541 30.594446
4.0134149 0.78685462 15.783684
2.8761623 0.57379884 8.0297375
3.8258655 0.77083254 8.1334381
4.1066298 0.83259469 6.9240308
4.4642358 0.90832269 6.1072364
6.3321548 1.2929466 7.0844331
7.0054569 1.4520838 7.1103716
7.079968 1.4572153 6.5191364
2.3029661 0.42920703 14.892287
4.0718689 0.79901874 13.312665
2.9883425 0.59398657 7.2373877
3.8681507 0.77442414 7.2967491
4.3511047 0.87582499 6.5912652
4.7209835 0.95283312 5.8428512
3.2363591 0.56643552 30.599417
4.0173712 0.77307785 15.788524
2.8713737 0.56242907 8.0109663
3.8178554 0.75536078 8.1109324
4.0992794 0.81621766 6.9069667
4.4791985 0.89509577 6.1231966
6.3466005 1.272835 7.095458
7.0803728 1.4418533 7.1804624
7.077692 1.431013 6.512485
2.2990999 0.42018843 14.857712
2.8366013 0.53210574 13.89881
2.30984 0.4449546 7.5671968
3.83323 0.75352651 7.2265239
4.4894066 0.88736677 6.7937799
4.7400012 0.93946356 5.8620391
3.2388422 0.55522513 30.604389
5.0365772 0.95094198 19.77137
2.8733194 0.55240273 8.0109663
3.8097837 0.73995435 8.0884266
4.0944247 0.80040264 6.8941689
4.4970808 0.88235563 6.143147
6.3210688 1.2447785 7.0623817
7.1028481 1.4206266 7.1979856
7.0679951 1.4033899 6.4991837
2.2944338 0.41106507 14.818198
2.8344357 0.52146435 13.87923
2.3099124 0.43661192 7.5624247
2.9943352 0.57347715 7.2419901
3.8358371 0.74014139 7.2265239
4.5836391 0.88937759 6.9301667
4.7526898 0.92474848 5.8735514
3.2407608 0.54391605 30.604389
4.9793038 0.92214161 19.534237
2.8650556 0.54045075 7.98281
3.8251741 0.72909647 8.1154337
4.107439 0.7880711 6.9112325
4.5090094 0.86836183 6.1551166
6.3054042 1.218846 7.0403309
7.1077642 1.3958243 7.1979856
7.0838442 1.3808525 6.5091596
2.2943242 0.402785 14.808319
2.8272202 0.5099411 13.835173
2.3143578 0.4290902 7.571969
3.02704 0.56879294 7.3156304
3.8242781 0.72407442 7.2001896
4.6254172 0.88074106 6.9880285
4.7558889 0.90815288 5.8735514
3.2426395 0.5326004 30.604389
4.9503369 0.89891714 19.408413
2.8533497 0.52793545 7.9452682
3.8276958 0.71573967 8.1154337
4.1101646 0.77372867 6.9112325
4.5268178 0.85541457 6.1750669
6.2430043 1.1841933 6.9668274
7.0495605 1.3588556 7.1349034
7.0996242 1.3582215 6.5191364
2.2941844 0.39451069 14.798441
2.8229671 0.49900627 13.805801
2.3158414 0.421009 7.571969
3.0290067 0.55822319 7.3156304
3.8432655 0.71378171 7.2309127
4.6920857 0.87647355 7.0830865
4.7842336 0.89626747 5.9042516
3.2444789 0.5212782 30.604389
3.4312849 0.61076772 13.45592
2.7566929 0.50011045 7.6730876
3.8323123 0.70276678 8.119935
4.1154051 0.75985026 6.9154987
4.5386643 0.84125507 6.187037
6.2770967 1.1679749 6.9999037
7.0857983 1.3402044 7.1664443
7.0933123 1.3313646 6.5091596
2.2932489 0.38611338 14.783624
2.8277013 0.48967019 13.820487
2.3070097 0.4110902 7.5385647
2.9809511 0.5386166 7.1959648
4.7366362 0.86769497 7.1450806
4.8535357 0.89172429 5.984839
3.2462788 0.50994968 30.604389
3.5535104 0.61972833 13.925345
2.8161888 0.50075382 7.8326416
3.8347418 0.68938524 8.119935
4.1205993 0.74594474 6.919765
4.5593615 0.82863981 6.2109771
6.4345503 1.1740476 7.168962
11.070222 2.0537913 11.144104
2.2930496 0.3778536 14.773745
2.8293934 0.47979668 13.820487
2.3084307 0.40303472 7.5385647
3.0020502 0.53161377 7.2419901
4.7922611 0.8606056 7.2236066
4.9007812 0.88273096 6.0385642
3.2475119 0.49853408 30.599417
3.5754764 0.61070555 14.002776
2.8383205 0.49447361 7.8889542
3.834981 0.67561764 8.1154337
4.1154737 0.73018986 6.9069667
4.571126 0.81430489 6.2229471
6.4452844 1.1527735 7.1763124
11.087849 2.0170512 11.154618
11.82773 2.1345823 10.785752
2.292053 0.36947638 14.758926
2.839087 0.47125056 13.859649
2.306881 0.39447135 7.5290208
2.9942632 0.51946211 7.2189775
4.6526523 0.81377828 8.7231998
4.798007 0.84435987 7.2277398
4.9322405 0.87063295 6.073102
3.2492323 0.4871951 30.599417
3.5391536 0.59179658 13.852754
2.8672471 0.48920572 7.9640393
3.8394613 0.66259712 8.119935
4.1334147 0.71849942 6.9325619
4.5590987 0.79575336 6.2029972
6.4125366 1.123831 7.1358852
11.358137 2.0252864 11.417459
2.2917936 0.36123163 14.749049
2.8477499 0.46247938 13.893915
2.3185494 0.38814101 7.5624247
2.9922061 0.5083527 7.2097726
4.4194031 0.75709695 8.2842913
4.7426891 0.81756836 7.1409473
5.004734 0.86542535 6.1575265
3.2509131 0.47585019 30.599417
3.5436788 0.57984483 13.862432
2.8859582 0.48203638 8.0109663
3.8503366 0.6506415 8.1379395
4.1513238 0.70669252 6.958158
4.5588784 0.77932656 6.199007
6.4130788 1.1008667 7.1322103
11.646182 2.0347273 11.697823
11.846024 2.0525954 10.789079
2.2907367 0.35287496 14.734231
2.8523636 0.453015 13.908601
2.3331478 0.38221642 7.6053724
2.9862535 0.49662313 7.1913624
4.2944703 0.72027564 8.0472813
4.6567216 0.78602201 7.0086932
4.9919233 0.84527493 6.1383395
3.2525542 0.46449953 30.599417
3.5345104 0.56568432 13.818877
2.8995452 0.47390756 8.0438166
3.8697665 0.64003873 8.1739483
4.1769185 0.69605523 6.9965515
4.5496831 0.761419 6.1830468
6.4135394 1.0779122 7.1285348
11.843031 2.0265424 11.887068
11.86416 2.0131063 10.799055
2.2896495 0.34453008 14.719413
2.8559401 0.4433679 13.918391
2.3344676 0.37406987 7.6053724
2.972542 0.48368648 7.154542
3.8810043 0.63701648 7.2748032
4.6538839 0.76884496 7.0004272
4.9885187 0.82679653 6.1306643
3.2541559 0.45314315 30.599417
3.5687521 0.5583936 13.944702
2.846652 0.45506862 7.8936472
3.8741262 0.62687457 8.1784496
4.1999149 0.68482816 7.0306792
4.5612345 0.74699396 6.1950173
6.427299 1.0571688 7.1395607
11.807827 1.9781196 11.845014
11.941099 1.9833038 10.86224
2.2893009 0.33630997 14.709535
2.8574703 0.4333961 13.918391
2.3623047 0.37007567 7.6912684
2.9722834 0.47300053 7.14994
3.8902986 0.62460423 7.2879705
4.6454272 0.75079942 6.9838958
5.6146665 0.91044134 6.8866525
3.2557178 0.44178125 30.599417
3.5942879 0.54954129 14.036652
2.848223 0.44512916 7.8936472
3.8934922 0.6160689 8.2144594
4.2357612 0.67550242 7.0861359
4.6143942 0.73916936 6.2628474
6.3840899 1.0271877 7.0881076
11.81466 1.9368906 11.845014
11.944263 1.9410105 10.858913
2.292768 0.32864717 14.724352
2.8519151 0.42237535 13.884125
2.3871906 0.36544007 7.7676201
2.9797075 0.46352312 7.1637473
4.6535792 0.7354579 6.9921618
5.614645 0.89033502 6.8828154
3.2572401 0.43041399 30.599417
3.5874817 0.53569251 14.002776
2.7985823 0.42737138 7.7528644
3.9666142 0.61345232 8.3629999
4.2355165 0.6603111 7.0818701
4.6496935 0.72818565 6.3067379
6.3608451 1.0006822 7.0587063
11.701625 1.8764398 11.725859
11.950966 1.8993052 10.858913
2.2954404 0.32085687 14.734231
2.8453102 0.41125312 13.844963
2.395833 0.35820815 7.7914796
2.9851706 0.45370615 7.1729527
5.6866164 0.87229282 10.610503
4.6394315 0.71663201 6.9673634
5.6842341 0.88103986 6.9634027
3.2587228 0.41904151 30.599417
3.5843546 0.52244169 13.983418
2.7983501 0.4173454 7.7481718
4.0742054 0.61553508 8.583559
4.2249041 0.64355892 7.0605407
4.6641212 0.71377391 6.3226976
6.3173881 0.97126067 7.0072546
6.7615066 1.0600805 6.8054762
11.953833 1.857004 10.855589
2.2980862 0.31305191 14.744109
2.8487449 0.40160275 13.854753
2.4059315 0.35113588 7.8201122
2.9828708 0.44270968 7.1637473
5.7038379 0.8545664 10.636838
4.6252098 0.69791406 6.9425659
3.2601655 0.40766385 30.599417
3.6122901 0.51364148 14.085046
2.6990366 0.39291239 7.4712982
4.1947794 0.61877984 8.8311262
4.1935892 0.62381929 7.0050831
4.7023463 0.70283341 6.3705783
6.3274455 0.95020992 7.014605
6.7369652 1.0321517 6.7774396
11.98239 1.8186275 10.875541
2.2999353 0.30513027 14.749049
2.8501294 0.39165631 13.854753
2.3982754 0.34147349 7.7914796
2.9785976 0.43145484 7.14994
5.6949372 0.83291829 10.614893
4.6304016 0.68217492 6.9466991
5.0053596 0.74007773 6.1345019
3.2610397 0.39621708 30.594446
3.6277566 0.50292706 14.138279
2.6969748 0.38300347 7.4619131
4.1990685 0.60444361 8.8356276
4.1802554 0.60692906 6.9794874
4.7017889 0.68597984 6.3665881
6.3609128 0.9325428 7.0476813
6.7334723 1.0075735 6.7704306
2.3017569 0.29719952 14.753987
2.8534973 0.38197511 13.864544
2.3964956 0.33268949 7.7819357
2.9800856 0.42105496 7.14994
5.6717291 0.80931312 10.566612
4.6438961 0.66760916 6.9632306
5.0967398 0.73541731 6.2419524
3.262403 0.38483152 30.594446
3.6058226 0.48706502 14.04633
2.7170985 0.37618944 7.5135336
4.2076201 0.59069026 8.8491306
4.1591082 0.58904248 6.9410939
4.6773067 0.66574228 6.330678
6.3641291 0.9103334 7.0476813
6.7298913 0.98303229 6.7634211
2.3035514 0.28925979 14.758926
3.8130021 0.4967995 18.510115
2.3961632 0.32412219 7.7771645
2.9602478 0.40771854 7.0993118
3.7815466 0.52616465 7.0641279
4.5848889 0.64280033 6.8723059
5.2897129 0.74441999 6.4722018
3.2637262 0.37344125 30.594446
3.5738521 0.47005141 13.915666
2.7235255 0.36739457 7.5276117
4.2096562 0.57599932 8.8491306
4.1430545 0.57202435 6.9112325
4.6646786 0.64734054 6.3107281
6.3739824 0.88904935 7.0550313
6.7297516 0.95903146 6.7599173
2.3045471 0.28121716 14.758926
3.8137033 0.48335868 18.50522
2.4091196 0.31731477 7.81534
3.0119972 0.40413597 7.2189775
3.7643738 0.51038754 7.0290146
4.5564356 0.62260187 6.8268433
5.4701085 0.75034213 6.6871028
3.2650101 0.36204645 30.594446
3.1403351 0.4019084 12.226707
2.7521672 0.36147982 7.6026964
4.2008519 0.55986363 8.8266249
4.0933304 0.55060613 6.8259139
4.6430211 0.62782401 6.2788076
6.3904843 0.86862099 7.0697322
6.7189283 0.93357134 6.7458987
2.3062863 0.27326238 14.763866
3.8224411 0.47091448 18.539486
2.423538 0.31061047 7.8582883
2.9959545 0.39134294 7.1775546
3.6925263 0.48752776 6.8929534
4.5111609 0.6003828 6.7565832
5.5489421 0.74143058 6.7792025
3.2662539 0.35064724 30.594446
3.1554401 0.39265075 12.279941
2.7431417 0.35055873 7.5745392
4.2070985 0.54575658 8.8356276
4.0616107 0.53191251 6.7704568
4.6421967 0.6112197 6.2748175
6.3867555 0.84541905 7.0623817
6.7186122 0.90963376 6.742394
2.3056822 0.26503301 14.753987
3.8301275 0.45829427 18.568857
2.4246075 0.30214885 7.8582883
2.9973023 0.38088268 7.1775546
5.4639325 0.70197088 10.162817
4.5160198 0.58499366 6.760716
5.5928168 0.72743046 6.8290901
3.267988 0.3392987 30.599417
3.1430645 0.37997511 12.226707
2.722086 0.33821616 7.5135336
4.2089777 0.53106773 8.8356276
4.0091128 0.51081038 6.6808724
4.6472907 0.59539455 6.2788076
6.3795815 0.82182068 7.0513568
6.7429605 0.88897246 6.7634211
2.3050487 0.2568112 14.744109
3.8317039 0.44492185 18.568857
2.4212017 0.29314554 7.8439717
5.4330783 0.67873794 10.10137
4.5571218 0.57415038 6.8185778
5.5826025 0.70629436 6.8137403
3.2696831 0.3279424 30.604389
4.5837884 0.53783959 17.806562
2.7763605 0.3351205 7.659009
4.245378 0.52061123 8.9076471
4.0108719 0.49681285 6.6808724
4.6523309 0.57954127 6.2827973
6.3790469 0.79912537 7.0476813
6.7566342 0.86679101 6.7739348
2.3051586 0.24868026 14.73917
2.827481 0.31837511 13.703001
2.419245 0.28434387 7.8344274
5.4116392 0.65688324 10.057479
4.5674777 0.55926543 6.8309765
5.6200275 0.69110608 6.8559523
3.2713382 0.31657833 30.60936
4.5631576 0.51927853 17.719454
2.7329504 0.32020801 7.5369973
4.2752714 0.50913489 8.9661627
4.0151706 0.48312074 6.6851382
4.6902232 0.56764215 6.330678
6.3616052 0.77439559 7.02563
6.7737746 0.84496641 6.7879534
2.3021486 0.24022953 14.714473
2.8245265 0.30806217 13.683421
3.8662553 0.44065219 12.487112
4.1771002 0.48637173 9.9666843
5.4686055 0.64443505 10.158429
4.6001401 0.54697293 6.8764391
5.6478667 0.67452484 6.8866525
3.2724235 0.3051573 30.60936
4.5636926 0.50320929 17.714615
2.7117612 0.3081345 7.4759912
4.3094606 0.49795577 9.0336809
4.0194235 0.46940476 6.6894045
4.7520294 0.55829793 6.4104786
6.3609033 0.75178689 7.0219555
6.7908435 0.82303256 6.8019714
2.3052924 0.23242559 14.729291
2.818496 0.29745334 13.649154
3.8484821 0.42502433 12.425076
4.1807137 0.47200707 9.9712868
5.5279298 0.63186896 10.263766
4.6020212 0.5309121 6.8764391
5.6883941 0.65923357 6.9327025
3.2739997 0.29378012 30.614332
4.57792 0.48860946 17.763008
2.7213969 0.29961064 7.499455
4.3457875 0.48678651 9.1057005
4.0184455 0.45507804 6.6851382
6.3298078 0.72571731 6.9852037
6.8113837 0.8014065 6.8194938
2.302223 0.22400151 14.704596
2.8174915 0.28740665 13.639364
3.8291626 0.40936735 12.358268
4.1376686 0.45252681 9.8654289
3.8637965 0.42801821 7.191411
4.5758805 0.5117178 6.8351092
5.6874757 0.63901544 6.928865
3.2744741 0.28230423 30.60936
3.4455462 0.35563359 13.373651
3.9733648 0.42335466 10.920482
4.3063397 0.46715403 9.0201778
4.0226026 0.44133267 6.6894045
5.1751189 0.57140124 6.9690819
6.3120861 0.70137161 6.9631529
6.8212271 0.77843416 6.8265033
2.3091795 0.21654342 14.744109
2.8113842 0.27687201 13.605097
2.4244642 0.25069165 7.8391995
3.0726199 0.32522333 7.3386431
3.839072 0.41171974 7.1431308
4.5916271 0.49725655 6.8557739
5.7247224 0.62297255 6.9710779
3.2754397 0.27087247 30.60936
3.4530206 0.34422734 13.397848
3.9507859 0.40700746 10.854783
4.3079443 0.45211926 9.0201778
4.0241184 0.42728847 6.6894045
5.180078 0.55365342 6.9730721
6.3515735 0.68332261 7.0035791
6.8416262 0.75657868 6.8440261
2.312243 0.20869082 14.758926
2.8062518 0.2664797 13.575726
2.4282951 0.2425237 7.8487439
3.0776236 0.31489348 7.3478479
5.2269373 0.54208153 9.6975746
4.5625491 0.47800091 6.8103118
5.7236743 0.60265011 6.9672403
3.2768967 0.2594794 30.614332
3.399148 0.32688066 13.184913
4.1445088 0.41234306 11.380373
4.0307736 0.4137716 6.6979361
5.2059574 0.53804612 7.004992
6.444963 0.67061996 7.102809
6.8442254 0.73269236 6.8440261
2.316828 0.20095353 14.783624
2.8041232 0.25640455 13.56104
2.4246695 0.23361667 7.8344274
3.0806479 0.30434063 7.3524508
5.2478619 0.52574241 9.732688
4.5529909 0.46093813 6.7937799
5.7034221 0.58039582 6.9403777
3.2777824 0.24803931 30.614332
3.2851198 0.30435166 12.739686
4.2352476 0.40644306 11.624397
4.7919779 0.46910942 10.019446
4.0347891 0.39995629 6.7022018
5.2078042 0.5198707 7.004992
6.5181007 0.65523905 7.179987
6.814816 0.70549226 6.8124852
2.3151925 0.19267204 14.768806
2.8131154 0.24732754 13.600202
2.4254701 0.22515157 7.8344274
3.0875263 0.29414096 7.3662581
5.2544332 0.50788152 9.7414656
4.5377679 0.44340068 6.7689824
5.6894636 0.55891693 6.9211898
3.27916 0.23663449 30.619303
3.3349905 0.29723182 12.928423
2.7193379 0.25143489 7.4806843
4.9583025 0.46792072 10.361539
4.0465455 0.38686246 6.7192659
5.2035885 0.50111133 6.9970117
6.5810862 0.63837391 7.24614
6.8243332 0.68240941 6.8194938
2.303458 0.18360311 14.689777
2.8230929 0.23827642 13.644259
2.4336753 0.2173472 7.8582883
3.0885341 0.2833617 7.3662581
5.2895594 0.49264589 9.8029127
4.5280814 0.42650282 6.75245
5.6147966 0.53180087 6.8290901
3.2804978 0.22522311 30.624275
3.4224229 0.29298195 13.262343
2.7287934 0.24270509 7.504148
5.0314498 0.45710859 10.510079
4.0348854 0.37153953 6.6979361
5.2023053 0.48266596 6.9930215
6.596776 0.61665976 7.2608409
6.8586216 0.66166574 6.8510346
4.8205128 0.36698151 30.732487
2.8239076 0.22842054 13.644259
2.4359059 0.20897824 7.863059
3.0933969 0.27292225 7.3754635
3.9196212 0.35128176 7.279192
4.5127277 0.40916991 6.7276525
5.5974669 0.51045197 6.8060651
3.2812641 0.21377066 30.624275
3.4484799 0.28308919 13.359133
2.7193074 0.23229754 7.4759912
5.0134969 0.43783861 10.469568
4.0101795 0.35515261 6.6552768
5.2009573 0.46423572 6.9890313
6.6056423 0.59423643 7.2681913
7.0348864 0.65389258 7.022758
4.827189 0.35054615 30.767061
2.8216422 0.21832645 13.629573
2.4410839 0.20084099 7.8773756
3.0943308 0.2621226 7.3754635
3.9065065 0.33636513 7.2528582
4.5197353 0.39390361 6.7359185
5.5672846 0.48811096 6.7676897
3.2825222 0.20234835 30.629246
3.5008247 0.27508453 13.557549
2.7321413 0.22378956 7.5088406
4.9716082 0.41669992 10.379544
3.9906054 0.33938468 6.6211491
5.1995444 0.44582084 6.9850421
6.6009207 0.57059091 7.2608409
7.2502499 0.64839059 7.2330303
4.828383 0.33369398 30.767061
2.822387 0.20847575 13.629573
2.4417701 0.1923188 7.8773756
3.0952268 0.25131977 7.3754635
3.8408246 0.31720874 7.1299634
4.4818234 0.37484148 6.6780572
5.5881181 0.47028714 6.7907147
3.2832086 0.19088896 30.629246
3.4654136 0.26013589 13.417205
2.7741952 0.21748629 7.6214666
4.9404821 0.39673004 10.312025
3.9709706 0.32375774 6.5870218
5.1950626 0.42717451 6.9770617
6.5150294 0.54026216 7.1652865
7.579361 0.65116054 7.5554485
2.9051325 0.19070652 18.507824
2.8149719 0.19805148 13.590411
2.4543345 0.18468963 7.9155512
3.1058242 0.2412701 7.3984761
3.8132582 0.30153492 7.0772948
4.4634695 0.35762179 6.6491265
5.5961151 0.45129332 6.7983899
3.2838552 0.17942727 30.629246
3.4500015 0.24687231 13.354293
2.7766583 0.20793 7.6261597
4.9440079 0.3796488 10.316526
3.9772768 0.31030011 6.5955539
5.1905136 0.4085649 6.9690819
6.4661827 0.51349193 7.1101594
7.6135755 0.62733513 7.5869899
2.9026783 0.18037212 18.488066
2.8115819 0.18795282 13.57083
2.4549642 0.17612128 7.9155512
3.8071227 0.2876811 7.0641279
4.4141855 0.33817083 6.5747333
5.5976567 0.43175647 6.7983899
3.2844613 0.16796339 30.629246
3.448334 0.23465747 13.344614
2.7498267 0.19627193 7.5510755
4.9279337 0.3611162 10.280517
3.9861383 0.29699615 6.6083512
5.1858983 0.38999227 6.9611015
6.4104686 0.48655629 7.0476813
7.5695014 0.5971095 7.541431
2.8908794 0.1695123 18.409039
2.8071401 0.17781597 13.546354
3.8331194 0.26146325 12.329637
4.222147 0.29831228 10.03112
3.8081038 0.27438998 7.0641279
4.3451757 0.3176325 6.4714098
5.6023264 0.41244969 6.8022275
3.2850275 0.15649745 30.629246
3.4077382 0.21994954 13.184913
2.6712961 0.18130054 7.3352084
4.9400229 0.3446697 10.303023
3.9897523 0.28326476 6.6126175
5.1782117 0.37124142 6.949132
6.3918395 0.46270815 7.02563
7.4648542 0.56264287 7.4362941
2.9030912 0.16006069 18.483128
2.8026619 0.16771245 13.521878
3.7967689 0.24567339 12.210337
4.225112 0.28370327 10.035723
3.7851446 0.25945827 7.020237
4.343451 0.30226779 6.4672771
5.6069293 0.39311555 6.8060651
3.2855539 0.1450296 30.629246
3.3005862 0.20147248 12.768723
2.665024 0.17153184 7.3164372
3.9959209 0.26968732 6.6211491
5.1945071 0.35418853 6.9690819
6.3900342 0.44016069 7.0219555
2.9067361 0.15008599 18.502886
2.8011971 0.15781394 13.512088
3.8080328 0.2330566 12.243741
4.2065792 0.2677128 9.9896975
3.7692976 0.24515635 6.9895134
4.355711 0.28784651 6.483809
5.6306543 0.37503222 6.8329277
3.2865727 0.13358158 30.634218
4.4971862 0.25869694 17.380693
2.6621616 0.16201863 7.3070517
3.6517432 0.22920416 7.629302
3.9994404 0.25590381 6.6254148
5.2137537 0.33722088 6.9930215
6.4185953 0.41962177 7.0513568
7.6038032 0.51975602 7.5694671
2.9126751 0.14019962 18.53746
2.7996972 0.14792767 13.502297
3.8252156 0.22070786 12.296233
4.1548343 0.24986237 9.8654289
3.7820826 0.23273277 7.0114584
4.3538809 0.27246478 6.4796758
5.6479235 0.35638437 6.8521147
3.2870193 0.12210849 30.634218
4.4993172 0.24306501 17.385534
2.6764936 0.15351485 7.344594
3.6460013 0.21606961 7.615798
4.0003095 0.24194159 6.6254148
5.2509913 0.32122692 7.0409021
6.4437065 0.39867941 7.0770826
7.6233649 0.49436441 7.5869899
2.9201326 0.13034275 18.581913
2.7981627 0.13805383 13.492506
3.8080761 0.20638533 12.238969
3.0185206 0.17098407 7.1821575
3.8115637 0.22119382 7.0641279
4.3548055 0.25726524 6.4796758
5.6715302 0.33800182 6.8789778
3.2879579 0.11065175 30.639189
3.4832885 0.17602438 13.465599
2.6701205 0.14380033 7.3258228
5.0073872 0.2791757 10.433558
4.0037336 0.22812474 6.6296811
5.2881789 0.30497703 7.0887823
6.502594 0.37954199 7.1395607
7.6250439 0.46775088 7.5869899
2.9213462 0.12018066 18.586851
2.796593 0.12819247 13.482716
3.8072827 0.19301587 12.234197
2.9976392 0.15930673 7.1315298
3.8147039 0.20801799 7.0685167
4.3500576 0.24175036 6.4714098
5.6790762 0.31856138 6.8866525
3.2883241 0.099173971 30.639189
3.520294 0.16557515 13.605944
2.6706064 0.13447899 7.3258228
5.0192008 0.2622627 10.456064
4.0019011 0.2140085 6.6254148
5.3072653 0.28749374 7.1127229
6.55127 0.35944116 7.1910124
7.637311 0.44174939 7.5975037
2.9147596 0.10972017 18.542398
2.7949889 0.11834378 13.472926
3.8079333 0.17972481 12.234197
3.0098844 0.14942284 7.1591444
3.8225825 0.19506694 7.0816841
4.3452544 0.22627176 6.4631438
5.6737518 0.29839915 6.8789778
3.2891831 0.087709114 30.644159
3.5271292 0.15355906 13.63014
2.6693356 0.12507533 7.3211298
5.0222602 0.24484681 10.460566
4.0182528 0.20081873 6.651011
5.3082361 0.26896617 7.1127229
6.5931134 0.33865738 7.2351151
7.6174412 0.41392666 7.5764766
2.9244432 0.099862359 18.601669
2.7933502 0.10850784 13.463136
3.7861681 0.16545488 12.162617
3.014291 0.13909544 7.1683497
3.8974011 0.18524575 7.2177453
4.3572607 0.21164855 6.4796758
5.661953 0.2779637 6.8636274
3.2894692 0.076227188 30.644159
3.52262 0.14104524 13.610783
2.6680319 0.11568217 7.3164372
5.0078611 0.22662573 10.429057
4.0371656 0.18763845 6.6808724
5.3121529 0.25057727 7.116713
6.611186 0.31645134 7.2534904
7.5974689 0.38624799 7.5554485
2.9162316 0.089392535 18.547338
2.7916765 0.098684795 13.453344
3.7434692 0.15050043 12.02423
3.0206137 0.12882227 7.1821575
3.9147727 0.17237727 7.2484689
4.3720288 0.19707094 6.5003405
5.6532831 0.2577602 6.8521147
3.2897153 0.064744338 30.644159
3.548213 0.12966497 13.707571
2.6787653 0.10678022 7.344594
4.8346181 0.20188114 10.06896
4.0820918 0.17544797 6.7533932
5.3160048 0.23216429 7.1207023
6.5953169 0.2926209 7.2351151
7.6023331 0.35989416 7.5589533
2.9095354 0.079023287 18.502886
2.7889512 0.088842414 13.43866
3.7469549 0.13754176 12.033773
3.0269015 0.11850666 7.1959648
3.9727831 0.16103794 7.3538065
4.3839369 0.18227594 6.5168724
5.6317315 0.23708154 6.8252525
3.2904541 0.053269256 30.649132
3.5373375 0.1169055 13.664016
2.6601517 0.096739963 7.292973
4.1139507 0.1624319 6.8045845
5.316783 0.21360654 7.1207023
6.5895233 0.26932031 7.2277646
7.6071057 0.33351102 7.562458
2.8996952 0.068628654 18.438675
2.7861907 0.079020254 13.423974
3.8742225 0.12866835 12.439392
3.0312016 0.10807917 7.2051702
3.9685347 0.14699218 7.3450289
4.392982 0.16729316 6.5292711
5.6421337 0.21779251 6.8367653
3.291153 0.041789796 30.654102
3.5289292 0.10429768 13.63014
2.6518495 0.087170638 7.2695098
4.3964329 0.15285435 9.1597147
4.2005019 0.15116423 6.9453602
5.3807321 0.19736499 7.204493
6.5870352 0.24619032 7.2240891
7.6260405 0.30767393 7.5799804
2.8983634 0.058475215 18.428795
2.783396 0.069218449 13.409287
3.8746481 0.11514401 12.439392
3.0354655 0.097623095 7.214375
3.9355123 0.13201509 7.2835813
4.4104133 0.15254115 6.554069
5.6460629 0.19820887 6.8406029
3.2912788 0.030301271 30.654102
3.5506332 0.092534415 13.71241
2.6348884 0.077407509 7.2225819
4.4034677 0.13771102 9.1732187
4.2296772 0.13743198 6.9922857
5.4596901 0.18117908 7.3082337
6.6047955 0.22376962 7.2424645
2.896996 0.04833192 18.418917
2.7805669 0.059437137 13.394603
3.8063855 0.09982083 12.219881
3.0377407 0.087082662 7.2189775
3.9694643 0.11928321 7.3450289
4.4081059 0.13705759 6.5499358
5.6307015 0.17799303 6.8214149
3.2918978 0.018815359 30.659077
3.5421381 0.07994175 13.678535
2.6472182 0.068521552 7.2554312
4.4169779 0.12270163 9.2002258
4.1884208 0.12145802 6.9240308
5.4542651 0.1619413 7.3002539
6.6258683 0.20133087 7.2645164
2.8948164 0.038188711 18.4041
2.777703 0.049676403 13.379916
3.7768645 0.085856147 12.124441
3.0575566 0.0769694 7.2650027
4.4507523 0.12283345 6.6119299
5.6473088 0.15878741 6.8406029
3.2924764 0.0073254942 30.664047
3.5323415 0.067385599 13.639819
2.6802208 0.060013052 7.344594
4.8395815 0.11752748 10.073462
4.1627469 0.10617245 6.8813715
5.4849195 0.14369017 7.3401542
2.892601 0.028061308 18.389282
2.7778597 0.039980106 13.379916
3.7771411 0.072671913 12.124441
3.0382748 0.065873288 7.2189775
4.6693516 0.10767869 8.6266394
4.4708462 0.10777108 6.6408606
5.6702585 0.13962574 6.867465
3.293015 -0.0041686422 30.66902
3.5137031 0.054762155 13.567228
2.7011185 0.051047284 7.400907
4.8269029 0.1003622 10.046453
4.1265888 0.090838216 6.8216481
5.3679013 0.12187719 7.1845436
11.717734 0.27414796 12.784613
2.8887963 0.017940342 18.364584
2.7790005 0.03029434 13.384811
3.7728944 0.059416443 12.110126
3.038486 0.05526733 7.2189775
4.6744885 0.091472588 8.6354179
4.5162101 0.093091466 6.7069883
5.6963477 0.12037348 6.8981652
3.2935135 -0.015665989 30.67399
3.5214138 0.042587526 13.596264
2.7202604 0.041909855 7.4525275
4.6748614 0.080879629 9.731369
4.1399188 0.076674417 6.842978
5.3743191 0.10325467 7.192523
11.701673 0.23290654 12.766237
2.8865104 0.0078503499 18.349768
2.7821438 0.020616028 13.399498
3.67606 0.04506084 11.799946
4.0407782 0.059353702 9.5800724
4.6867528 0.075347304 8.6573639
4.5502706 0.077903941 6.7565832
5.7063475 0.10065829 6.909678
3.2945046 -0.027171331 30.683933
3.5190272 0.030273739 13.586585
2.7290177 0.03251652 7.4759912
4.736063 0.065401249 9.8574028
4.140161 0.062222932 6.842978
5.4318914 0.085393444 7.2683334
2.8787506 -0.0022191221 18.300375
2.784235 0.010912227 13.409287
3.6388783 0.031903066 11.680646
4.0448675 0.045292035 9.5892773
4.6558547 0.058595773 8.6003056
4.4886117 0.061177276 6.6656585
5.7066641 0.080738805 6.909678
3.2959888 -0.038690113 30.698847
3.5304241 0.018047119 13.63014
2.7256634 0.022961358 7.4666061
4.1351376 0.047710609 6.834446
5.4894042 0.067131534 7.3441443
2.8818328 -0.012281382 18.320131
2.7852745 0.0011937219 13.414183
3.6076214 0.01903668 11.580435
4.0391407 0.031127529 9.57547
4.6392665 0.042191293 8.569582
4.4831705 0.045451757 6.657393
5.6299896 0.05999935 6.8175778
3.2958338 -0.050195027 30.698847
3.5405214 0.0057393257 13.668856
2.7240014 0.013438442 7.4619131
4.4621162 0.030468881 9.2902508
4.1352787 0.033275995 6.834446
5.5167236 0.048206195 7.3800545
2.8817725 -0.022340782 18.320131
2.787298 -0.0085354941 13.423974
3.5882607 0.0064097443 11.518399
4.0060129 0.016888985 9.4972277
4.5962763 0.025756201 8.4905777
4.3932548 0.029205058 6.5251379
5.582087 0.040002603 6.7600145
3.2908418 -0.061608899 30.654102
3.5417769 -0.0066223433 13.673695
2.7257574 0.0039322316 7.4666061
4.4621954 0.014893004 9.2902508
4.1353698 0.018840978 6.834446
5.4746728 0.028728051 7.3241935
2.8793459 -0.032373466 18.305315
2.7882695 -0.018271681 13.428869
3.5987103 -0.0061344011 11.551804
4.0138621 0.0029107439 9.5156374
4.5244889 0.0095615555 8.3589058
4.3623762 0.013772309 6.4796758
5.5597563 0.020435002 6.7331524
3.2879422 -0.073036164 30.629246
3.5392179 -0.018971808 13.664016
4.4360971 -0.00067912141 9.2362356
4.2110434 0.0044849422 6.958158
5.3994083 0.0094862143 7.224443
2.089093 -0.030701496 13.282088
2.789207 -0.028014755 13.433764
3.5986669 -0.018696206 11.551804
4.017755 -0.011111739 9.5248423
4.45504 -0.0061355727 8.2316227
4.3455133 -0.0014500259 6.4548779
5.6078725 0.001036105 6.7907147
1.967728 -0.050410021 18.314831
3.5139921 -0.031102104 13.567228
3.6558411 -0.020292306 9.996007
4.4360676 -0.016163986 9.2362356
4.2579775 -0.010329666 7.034945
5.3873558 -0.0093410164 7.2084832
4.8251095 -0.088141531 30.678156
2.7911284 -0.037778456 13.443554
3.6090283 -0.031348966 11.585207
4.0489492 -0.025332654 9.5984821
4.3759575 -0.021300292 8.0867825
4.3398538 -0.016597079 6.4466124
5.7296405 -0.018943714 6.9365401
1.9659415 -0.057231482 18.299917
3.4975228 -0.043165553 13.504314
3.6384921 -0.032896839 9.9490795
4.4599299 -0.03182001 9.2857494
4.257916 -0.025192719 7.034945
5.4053698 -0.028241005 7.2324233
2.0903811 -0.045319151 13.291967
2.7919977 -0.0475385 13.448449
3.6641228 -0.044621382 11.76177
4.0625114 -0.039599635 9.6307001
4.3231688 -0.036133699 7.9902234
4.3369555 -0.031725269 6.4424791
5.8128738 -0.039511029 7.0363154
1.9651972 -0.064076073 18.294947
3.4973507 -0.055373926 13.504314
3.6607869 -0.045879245 10.010085
4.4924436 -0.04773552 9.3532667
4.1587009 -0.039121434 6.8728395
5.4594746 -0.04758241 7.304244
2.094871 -0.052733641 13.321603
2.7979226 -0.057409909 13.477821
3.6594672 -0.05734095 11.747455
4.0760226 -0.053961597 9.6629181
4.454731 -0.052787453 8.2316227
4.3340044 -0.046833426 6.4383464
5.8832121 -0.060527615 7.1207404
1.9670923 -0.071012877 18.314831
3.5159869 -0.067946859 13.576906
3.6692319 -0.058796037 10.033549
4.6032629 -0.064986303 9.5828295
4.1142063 -0.053065162 6.8003182
5.5526791 -0.067780443 7.4279342
6.1437263 -0.070724927 6.7389674
2.092344 -0.059978664 13.306786
2.7977052 -0.067176126 13.477821
3.6592448 -0.070114523 11.747455
4.0777626 -0.068221971 9.6675205
4.4353623 -0.068042785 8.1965094
4.3281875 -0.061881099 6.4300804
5.876555 -0.0809751 7.1130652
1.9662999 -0.077857681 18.30986
3.5295515 -0.080535643 13.63014
3.7414687 -0.073020376 10.230645
4.600831 -0.081015915 9.5783281
4.1192112 -0.06751167 6.8088503
5.7060657 -0.089576341 7.6314259
6.1197138 -0.091813922 6.7132416
2.0928986 -0.067307025 13.311725
2.7872753 -0.076660782 13.428869
4.1165652 -0.083246626 9.7595711
4.432703 -0.083479531 8.1921206
4.3251314 -0.076938815 6.4259477
5.8762364 -0.10148761 7.1130652
1.9665486 -0.084743939 18.314831
3.5204532 -0.092623718 13.596264
3.7515421 -0.08631862 10.258801
4.7354608 -0.099925473 9.8574028
4.1189508 -0.081889987 6.8088503
5.7900743 -0.11111339 7.7431469
6.0820708 -0.11248527 6.6728144
2.0926509 -0.074612193 13.311725
2.7768135 -0.086073451 13.379916
3.6019626 -0.094174124 11.566119
4.1670303 -0.0988212 9.8792372
4.4180183 -0.098631032 8.1657867
4.3192096 -0.09191604 6.4176812
5.8309832 -0.12106697 7.0593405
1.9667733 -0.09163288 18.319803
3.7701938 -0.099916942 10.310423
4.9200668 -0.12100792 10.240005
4.1082106 -0.096023351 6.7917867
5.9432878 -0.13481034 7.9466381
