# .PCD v0.7 - Point Cloud Data file format
VERSION 0.7
FIELDS x y z
SIZE 4 4 4
TYPE F F F
COUNT 1 1 1
WIDTH 1553
HEIGHT 1
VIEWPOINT 0 0 0 1 0 0 0
POINTS 1553
DATA ascii
-0.09053459 2.8148165 6.6942902
-0.041822772 1.2450532 2.3502567
-0.030477056 0.86678791 1.1150461
-0.018209908 0.69325292 2.7075593
-0.028940015 0.98240525 2.7269118
-0.041355085 1.3202469 2.7949984
-0.025862992 0.79410887 1.3697844
-0.02342836 0.7043758 1.0079856
-0.031993646 0.94309038 1.1012651
-0.51201409 13.895853 13.744478
-0.47876981 12.811491 10.419791
-0.41440666 11.037568 7.3262577
-0.36741334 9.6957531 5.1654854
-0.34039745 8.9416695 3.7036045
-0.3061578 8.0055809 2.4447947
-0.29248399 7.5788689 1.5314376
-0.27154052 7.0362325 0.72509855
-0.49045736 13.835929 12.411923
-0.43085861 12.036028 8.853116
-0.38035652 10.573664 6.3030915
-0.34218508 9.3759947 4.4246502
-0.31998381 8.7259884 3.1281877
-0.29046711 7.8835921 1.9934242
-0.27166924 7.3734493 1.1213113
-0.25263226 6.824513 0.36915818
-0.033356946 1.5559391 7.5056438
-0.080708504 2.8151155 6.6942902
-0.01928924 0.63953173 1.2398196
-0.027957408 0.88290727 1.1342337
-0.01581819 0.69456887 2.7123985
-0.025644315 0.98767561 2.7409902
-0.03680671 1.3225592 2.7994995
-0.023090877 0.79419434 1.3697844
-0.020969488 0.70445335 1.0079856
-0.030039659 0.987248 1.1490422
-0.46600148 13.972405 13.818073
-0.51705939 15.263836 12.39702
-0.39280751 11.536249 7.652492
-0.35366759 10.281364 5.4715667
-0.31767234 9.1883602 3.802875
-0.29820067 8.5819006 2.6139984
-0.27946588 7.9627638 1.6041821
-0.25640991 7.3058906 0.74924082
-0.44406572 13.897267 12.465131
-0.3563177 10.971313 6.5361443
-0.32172877 9.7490892 4.5966907
-0.2951588 8.8969564 3.1873541
-0.27963281 8.3849249 2.1141729
-0.25814322 7.740602 1.1724216
-0.23885182 7.1249413 0.38125002
-0.027979881 1.5591003 7.52033
-0.070930511 2.8173327 6.6988921
-0.017183799 0.64438343 1.2485977
-0.12182461 4.4141836 6.5582018
-0.025325593 0.89901936 1.1534212
-0.013393595 0.69461989 2.7123985
-0.022235079 0.98948443 2.745683
-0.031239355 1.2835063 2.7184777
-0.020252032 0.79166293 1.3655185
-0.018510358 0.70452219 1.0079856
-0.027322222 1.0144584 1.1784436
-0.41860935 14.020288 13.863632
-0.46377546 15.265548 12.39702
-0.37705359 12.340011 8.178854
-0.33118573 10.716452 5.6988096
-0.29927713 9.6296129 3.9808133
-0.27034026 8.6500158 2.6337392
-0.25523749 8.0766163 1.6256323
-0.2340519 7.4062905 0.75818235
-0.39810145 13.988305 12.544942
-0.33712474 11.631765 6.9237204
-0.30817515 10.444244 4.9176927
-0.28007105 9.4360228 3.3747141
-0.25253794 8.4587269 2.1317577
-0.23806728 7.9740996 1.2048836
-0.21727867 7.2355928 0.38568372
-0.022406286 1.5500255 7.4762726
-0.061095756 2.8175631 6.6988921
-0.015099891 0.65162259 1.261765
-0.10607664 4.400516 6.5375371
-0.022423884 0.90871507 1.1649337
-0.010968838 0.69466239 2.7123985
-0.01884605 0.99300677 2.7550685
-0.017488489 0.79172879 1.3655185
-0.016051006 0.70458257 1.0079856
-0.023701653 1.0111582 1.1747683
-0.37117049 14.078704 13.919705
-0.4100675 15.25151 12.384466
-0.3508293 12.964057 8.5873318
-0.31064662 11.333053 6.0211225
-0.27639905 10.019869 4.1381478
-0.25638327 9.2359228 2.805763
-0.24029277 8.5488472 1.7151638
-0.21701257 7.7206769 0.78634834
-0.35029569 14.030669 12.581523
-0.36002836 14.221864 10.442423
-0.31991524 12.550774 7.4632874
-0.27879685 10.717476 5.0435758
-0.25924549 9.8995571 3.5357778
-0.23581843 8.9454498 2.2489893
-0.21140549 8.0194349 1.2110996
-0.19824895 7.4710331 0.39515564
-0.017006569 1.5511124 7.4811673
-0.051295716 2.8197126 6.703495
-0.012731586 0.6468823 1.2529869
-0.090715326 4.4008594 6.5375371
-0.019387111 0.91519684 1.1726087
-0.0085439468 0.69469643 2.7123985
-0.015406199 0.99479187 2.7597613
-0.014724733 0.791785 1.3655185
-0.013591455 0.70463425 1.0079856
-0.020171909 1.0112348 1.1747683
-0.32406268 14.169046 14.007319
-0.35746446 15.280087 12.406435
-0.2882427 12.051492 6.3967681
-0.25682893 10.660343 4.3966265
-0.23089157 9.5149088 2.8875449
-0.210692 8.5594559 1.7170291
-0.1977811 8.0350294 0.81451428
-0.30348143 14.132595 12.671311
-0.31020626 14.214952 10.436536
-0.29638845 13.474101 8.0053873
-0.25824311 11.46705 5.3897543
-0.2315446 10.202543 3.6409626
-0.2110367 9.2280617 2.3169839
-0.19801569 8.6587734 1.3001974
-0.17953463 7.7913351 0.40805364
-0.041452765 2.8198748 6.703495
-0.010550378 0.65171212 1.261765
-0.075497292 4.4095898 6.5499358
-0.016248859 0.91846365 1.1764462
-0.0061189518 0.694722 2.7123985
-0.011933633 0.99483955 2.7597613
-0.0088225072 0.63291949 1.3726147
-0.011960798 0.79183161 1.3655185
-0.01117907 0.7076903 1.0119755
-0.016586298 1.0079094 1.1710931
-0.27660495 14.273493 14.10895
-0.22515309 10.930001 4.5052624
-0.20973164 10.095978 3.0581591
-0.19460903 9.2133236 1.8410676
-0.17635764 8.3493404 0.84268034
-0.25569135 14.219431 12.747798
-0.26058495 14.215949 10.436536
-0.25884324 13.987952 8.3068352
-0.234359 12.316431 5.7820902
-0.20562965 10.708467 3.816818
-0.18993439 9.8021879 2.4553173
-0.1727782 8.916872 1.3361127
-0.15614519 7.9867191 0.41591334
-0.031609315 2.8200021 6.703495
-0.008275413 0.65174496 1.261765
-0.060027879 4.4041991 6.5416698
-0.013042724 0.91851479 1.1764462
-0.0036938821 0.69473916 2.7123985
-0.0083886366 0.98624706 2.7362974
-0.0066804029 0.6394769 1.3861184
-0.0091967173 0.79186851 1.3655185
-0.0087087024 0.70772499 1.0119755
-0.013199294 1.0181309 1.1821188
-0.22864859 14.392043 14.224601
-0.26329708 16.045 13.021572
-0.20277768 11.853133 4.877996
-0.18087085 10.465965 3.1667314
-0.16582428 9.4054937 1.8774396
-0.15168883 8.6038437 0.86548138
-0.20713645 14.294905 12.814308
-0.21114032 14.228895 10.445365
-0.21137336 14.079288 8.360033
-0.17284758 11.001859 3.9187155
-0.16088934 10.128412 2.5338626
-0.14574116 9.1748953 1.3720281
-0.13476296 8.3918343 0.43223736
-0.021765478 2.8200953 6.703495
-0.0060003484 0.65176988 1.261765
-0.044653993 4.4043818 6.5416698
-0.0098364288 0.91855472 1.1764462
-0.001270742 0.69600481 2.7172382
-0.0049375077 0.98454475 2.7316046
-0.0044333534 0.63731939 1.3816172
-0.006432524 0.79189581 1.3655185
-0.0062645231 0.71076423 1.0159656
-0.17951438 14.481903 14.312214
-0.20753933 16.065281 13.037265
-0.22129299 16.902081 11.167051
-0.1665132 12.229243 5.0297112
-0.15412556 11.176431 3.375416
-0.1430613 10.118221 2.0126696
-0.12447091 8.8035002 0.8833645
-0.15789354 14.355278 12.867517
-0.16156262 14.237629 10.451252
-0.1620772 14.067007 8.3524332
-0.1495003 12.234789 4.3476715
-0.13450803 10.853089 2.7085378
-0.11862305 9.5714827 1.4272825
-0.10798036 8.5920753 0.44029859
-0.011921376 2.8201542 6.703495
-0.0037252104 0.65178686 1.261765
-0.029260894 4.4016972 6.5375371
-0.0065841419 0.91217315 1.1687713
0.001158776 0.69600505 2.7172382
-0.0022086666 0.63733101 1.3816172
-0.0036682528 0.79191345 1.3655185
-0.0037834551 0.71078175 1.0159656
-0.12896201 14.482441 14.312214
-0.15112962 16.030878 13.009018
-0.16213182 16.886026 11.156086
-0.12064406 11.714143 3.53334
-0.11061761 10.388817 2.0639637
-0.097822651 9.1873169 0.91778964
-0.10775527 14.352008 12.86419
-0.11297321 14.067487 8.3524332
-0.11961588 13.983786 6.5520754
-0.11070683 12.683825 4.5038052
-0.099045709 11.125676 2.7741876
-0.090809673 10.200726 1.5149989
-0.08179646 9.0120411 0.4572272
-0.002077129 2.8201785 6.703495
-0.0014500271 0.65179586 1.261765
-0.013895928 4.4017725 6.5375371
-0.0034352678 0.92180622 1.1802837
0.0035882799 0.6959967 2.7172382
1.4908101e-05 0.63080406 1.3681135
-0.00090393674 0.79192144 1.3655185
-0.0013076001 0.71380389 1.0199556
-0.07840807 14.482803 14.312214
-0.095170498 16.031309 13.009018
-0.10298325 16.853039 11.134154
-0.10643826 16.045385 6.5712175
-0.084977791 12.482005 3.7589452
-0.079801694 11.15052 2.2085199
-0.071169026 9.9445381 0.98574555
-0.057671756 14.35603 12.867517
-0.063906953 14.076417 8.3574991
-0.070802622 13.984118 6.5520754
-0.066047609 12.204998 3.0344422
-0.058283214 10.77046 1.5944271
-0.053128362 9.511858 0.47738028
0.0077725989 2.8221223 6.7080975
0.0008251738 0.651797 1.261765
0.00146921 4.401794 6.5375371
-0.00021978177 0.93463355 1.1956338
0.0060177399 0.69597995 2.7172382
0.0022008675 0.62644625 1.3591111
0.0018603903 0.79191977 1.3655185
0.0011893072 0.71681732 1.0239457
0.014971608 14.344915 15.62919
-0.02782579 14.468723 14.298196
-0.039248254 16.047113 13.021572
-0.044154547 16.853296 11.134154
-0.043034386 14.495695 7.6744266
-0.049409255 15.721148 6.4401054
-0.047515675 14.324288 4.3003979
-0.042589087 11.617391 2.2971187
-0.037751645 10.298303 1.0174882
-0.0075673275 14.37108 12.880818
-0.014766186 14.072246 8.3549662
-0.021974256 13.975204 6.5478797
-0.024240328 13.878995 4.9196124
-0.02183738 11.369797 1.6779994
-0.021003246 10.026565 0.49813795
0.017623596 2.822078 6.7080975
0.0031120686 0.65418506 1.2661541
0.01683433 4.401762 6.5375371
0.0030320708 0.93142343 1.1917962
0.0084471265 0.69595474 2.7172382
0.0043564048 0.62208098 1.3501087
0.0046092183 0.78930044 1.3612524
0.0037072364 0.71982205 1.0279356
0.065075383 14.351556 15.636541
0.022685252 14.4723 14.301701
0.01675871 16.039366 13.015295
0.014660101 16.83662 11.123188
0.0075908056 14.544487 7.6999335
0.0026672832 15.36533 4.6063752
-0.0021815465 12.44764 2.4547317
-0.0018732068 10.69677 1.0532545
0.042586066 14.367284 12.877492
0.026808443 13.975195 6.5478797
0.024214795 13.883718 4.9212561
0.018597454 11.845201 1.7443047
0.014275128 10.226414 0.50619918
0.027474377 2.8219993 6.7080975
0.0053955815 0.65417022 1.2661541
0.032199245 4.4016767 6.5375371
0.010876411 0.695921 2.7172382
0.0065046698 0.61988521 1.3456075
0.0073397835 0.78667164 1.3569865
0.0062461565 0.72281784 1.0319257
0.11492631 14.320731 15.603465
0.073220916 14.475698 14.305205
0.07283476 16.058672 13.030988
0.073357806 16.81974 11.112222
0.060469113 16.502123 4.9405527
0.04465697 13.469315 2.6487167
0.038702175 11.67278 1.140882
0.093050428 14.415586 12.920724
0.095703498 16.13253 9.5658255
0.075541705 13.96594 6.5436835
0.072603695 13.869383 4.9163256
0.083585404 16.51634 4.0742879
0.065709531 12.984024 1.903161
0.054439675 11.140548 0.54307932
0.037324827 2.8218861 6.7080975
0.0077074529 0.65654224 1.2705431
0.047563769 4.4015374 6.5375371
0.054949172 5.3415546 6.4722018
0.013281211 0.69462204 2.7123985
0.0086684329 0.61985874 1.3456075
0.010052053 0.78403342 1.3527206
0.0088428482 0.7288177 1.0399057
0.16475809 14.306684 15.588764
0.12320112 14.411163 14.242123
0.12907703 16.081673 13.049819
0.13210206 16.823565 11.114964
0.10638651 14.515494 5.9531169
0.13066964 18.262287 5.458035
0.10504773 15.433931 3.0217648
0.083345674 12.245257 1.1922961
0.14336966 14.415174 12.920724
0.15205657 16.136408 9.5683584
0.12598816 14.1562 6.6318016
0.1208516 13.850156 4.9097514
0.14714026 17.206129 4.240757
0.11975586 14.003804 2.0454412
0.097052015 11.584912 0.56101561
0.047174823 2.8217385 6.7080975
0.01003595 0.6589061 1.2749324
0.062967978 4.4041581 6.5416698
0.073682733 5.3477407 6.479877
0.015705815 0.69457144 2.7123985
0.010793719 0.61764807 1.3411063
0.012745992 0.78138578 1.3484546
0.011528833 0.73782104 1.0518758
0.21484937 14.31619 15.599789
0.17290346 14.360722 14.19306
0.18561527 16.116152 13.078065
0.19044694 16.789549 11.093032
0.15710457 14.519671 5.9549899
0.2089712 19.628803 5.8598943
0.16999906 16.509197 3.2260084
0.13998584 13.594392 1.3134545
0.19313517 14.373517 12.884144
0.20815954 16.118538 9.5582266
0.16919692 13.84965 4.9097514
0.22569653 18.741356 4.6112089
0.18473887 15.340262 2.2319248
0.057024237 2.8215568 6.7080975
0.012335899 0.65886706 1.2749324
0.078391075 4.4067254 6.5458031
0.09234938 5.3474512 6.479877
0.018130226 0.69451237 2.7123985
0.012949646 0.61760664 1.3411063
0.015369685 0.7761215 1.3399227
0.014219932 0.74380171 1.0598558
0.26594979 14.376365 15.665942
0.22203359 14.295846 14.129977
0.24985866 16.843136 11.128672
0.20778671 14.519034 5.9549899
0.24509968 17.775743 3.4666245
0.20233785 14.674372 1.4104707
0.24248523 14.324224 12.840912
0.26456392 16.126335 9.5632935
0.2519151 15.861245 7.4206691
0.21761437 13.853697 4.9113951
0.25843805 16.636808 2.412883
0.066872962 2.8213406 6.7080975
0.0146357 0.65882003 1.2749324
0.09377294 4.406425 6.5458031
0.11121461 5.35671 6.4913898
0.020554416 0.69444489 2.7123985
0.01505185 0.61538136 1.3366051
0.017956784 0.77084857 1.3313909
0.016952924 0.74977255 1.0678359
0.27376574 14.391255 14.224601
0.29768977 16.091114 13.059234
0.25640321 14.402342 5.908164
0.27601695 15.973155 1.5271584
0.29278958 14.338222 12.854214
0.46420106 23.126301 16.926205
0.32111102 16.138243 9.5708923
0.30895013 15.946486 7.4605327
0.47456419 24.71656 8.6931095
0.31019819 16.304077 2.3666072
0.28041619 14.875 0.69382447
0.076774053 2.8230429 6.7126999
0.016873462 0.65637064 1.2705431
0.10915365 4.4060707 6.5458031
0.13084534 5.3947396 6.5374393
0.022978354 0.6943689 2.7123985
0.01719984 0.61532509 1.3366051
0.020507257 0.765567 1.322859
0.01972777 0.75573325 1.075816
0.32688922 14.518564 14.350764
0.49532509 22.701952 14.972207
0.31865194 14.842295 7.8576121
0.30588555 14.36428 5.8931799
0.53150827 25.164911 7.488482
0.35473195 17.077412 1.6264099
0.3431946 14.352043 12.867517
0.54492408 23.124538 16.926205
0.37744206 16.137024 9.5708923
0.36336672 15.890861 7.4353552
0.56030256 24.691149 8.6848927
0.35439891 15.738503 2.2878699
0.33735994 15.09869 0.70289338
0.086627841 2.8227575 6.7126999
0.019094305 0.65391374 1.2661541
0.12461259 4.4084754 6.5499358
0.1496757 5.3942504 6.5374393
0.16159543 1.7495022 30.218929
0.025402013 0.69428444 2.7123985
0.019347623 0.61526132 1.3366051
0.022941889 0.75767028 1.3100612
0.022455042 0.7586717 1.079806
0.38164666 14.674196 14.504964
0.75454223 29.606142 23.962231
0.37786797 14.929295 9.8758211
0.37045929 14.841092 7.8576121
0.35602438 14.363125 5.8931799
0.62111759 25.234838 7.5096326
0.41470343 17.091002 1.6277511
0.39410886 14.380616 12.894119
0.62509382 23.102293 16.911489
0.43434769 16.157152 9.5835581
0.6464873 24.689043 8.6848927
0.5622927 21.617754 5.3063936
0.40791798 15.682714 2.2802725
0.39599773 15.327157 0.71216381
0.096547395 2.8243906 6.7173023
0.021376774 0.6538431 1.2661541
0.14000028 4.4080138 6.5499358
0.16900486 5.4097142 6.5566273
0.16770135 1.7489274 30.218929
0.027825363 0.69419152 2.7123985
0.021495167 0.61519003 1.3366051
0.025321646 0.74976599 1.2972634
0.02520307 0.76160032 1.083796
0.43318233 14.683468 14.515477
0.85844612 29.622784 23.977924
0.42961743 14.915344 9.8675966
0.42188409 14.826425 7.850656
0.40786266 14.422037 5.9175291
0.64531487 22.959604 6.8412766
0.45307994 16.322828 1.558901
0.44718733 14.472453 12.977257
0.70634925 23.120171 16.926205
0.49035138 16.142612 9.5759592
0.7328043 24.691357 8.6865358
0.63846606 21.639954 5.3122549
0.46265838 15.681195 2.2802725
0.10640577 2.8240361 6.7173023
0.023572057 0.65137112 1.261765
0.15548547 4.4103103 6.554069
0.1872194 5.3898706 6.5336018
0.030248376 0.69409019 2.7123985
0.023642451 0.61511123 1.3366051
0.027646501 0.74185437 1.2844657
0.027861396 0.76150769 1.083796
0.48455223 14.685432 14.518983
0.96083307 29.588482 23.952816
0.74409693 23.038219 15.197007
0.47278664 14.798296 7.8367429
0.45849693 14.429792 5.9212751
0.7245459 22.928444 6.8328166
0.50896561 16.286306 1.5557714
0.51605731 15.004416 13.452804
0.78663671 23.105444 16.917376
0.81898874 24.688648 8.6865358
0.71560282 21.686172 5.3239784
0.51673985 15.659687 2.2775097
0.63263398 19.273676 0.87157476
0.1161824 2.8216956 6.7126999
0.025845623 0.65128487 1.261765
0.17098838 4.4125528 6.5582018
0.20554252 5.3763733 6.5182524
0.032671019 0.6939804 2.7123985
0.025880983 0.61720002 1.3411063
0.029916437 0.73393583 1.2716678
0.030519385 0.76140577 1.083796
0.81990463 20.776829 22.619352
0.53607112 14.69078 14.525991
1.0681677 29.697754 24.043833
0.82331419 23.00205 15.175075
0.50886351 14.428103 5.9212751
0.80457664 22.925776 6.8328166
0.56581235 16.284431 1.5557714
0.57394308 15.148038 13.582498
0.86728495 23.102558 16.917376
0.9053362 24.690355 8.688179
0.79342443 21.741831 5.3380461
0.57266337 15.692429 2.2823443
0.69990784 19.271351 0.87157476
0.12603125 2.8212729 6.7126999
0.028118873 0.6511907 1.261765
0.18639001 4.4119287 6.5582018
0.22323902 5.3500037 6.4875522
0.18545344 1.7419084 30.12908
0.035093263 0.69386208 2.7123985
0.028134387 0.61928058 1.3456075
0.032131433 0.72601056 1.25887
0.033045568 0.75828427 1.079806
0.89329743 20.794165 22.641403
0.58649319 14.667438 14.504964
1.1713654 29.682177 24.034416
0.90360129 22.999037 15.175075
0.62112981 16.242546 1.5521948
0.6294409 15.209362 13.639032
0.94775695 23.09535 16.914433
0.99151617 24.687044 8.688179
0.87144917 21.792355 5.3509417
0.63238347 15.814038 2.2996113
0.75942183 19.074104 0.86371505
0.13597263 2.822767 6.7173023
0.030391783 0.65108854 1.261765
0.20178938 4.4112511 6.5582018
0.24220234 5.3555956 6.4952273
0.19188175 1.7444068 30.183987
0.037515078 0.69373536 2.7123985
0.030509353 0.62352723 1.3546098
0.034416139 0.72068387 1.2503382
0.035834212 0.76117414 1.083796
0.95769578 20.61482 22.450294
0.63737869 14.658175 14.497954
1.2759706 29.701239 24.053247
0.98387742 22.995743 15.175075
0.59979004 14.192611 5.8276234
0.67595404 16.195498 1.5481712
0.68721539 15.311511 13.732145
1.0281892 23.087864 16.911489
1.0160055 22.904114 13.558115
0.65394336 14.918523 6.9905682
1.0783019 24.697588 8.6931095
0.94455701 21.721195 5.3345294
0.68758088 15.811733 2.2996113
0.83032167 19.171162 0.86774564
0.1458251 2.8222752 6.7173023
0.032664321 0.65097851 1.261765
0.21663252 4.3992777 6.5416698
0.2608954 5.3547177 6.4952273
0.1981988 1.7457342 30.218929
0.039936438 0.69360024 2.7123985
0.033028618 0.62993872 1.3681135
0.036664054 0.71535015 1.2418064
0.038490988 0.76104444 1.083796
1.0237287 20.492846 22.321665
0.68854135 14.655861 14.497954
1.3819879 29.74715 24.094048
1.0639482 22.987991 15.172334
0.64784443 14.158012 5.8145123
0.73158258 16.17314 1.5463828
0.74354547 15.36869 13.785354
1.1083866 23.076059 16.905603
1.0955373 22.891813 13.553049
0.70537102 14.90255 6.9842744
1.1653957 24.712542 8.6996841
0.89957261 19.218052 0.86976099
0.1556758 2.821749 6.7173023
0.034936462 0.65086049 1.261765
0.23272881 4.4125452 6.5623345
0.27975243 5.3569751 6.4990649
0.20408894 1.7433114 30.188978
0.042434268 0.69471121 2.7172382
0.035227314 0.62981963 1.3681135
0.039018013 0.7126137 1.2375402
0.041962057 0.77594966 1.1037462
1.0905505 20.401127 22.22611
0.73358232 14.53227 14.3788
1.4852337 29.730482 24.084631
1.145848 23.017548 15.194265
0.69862962 14.183446 5.8257504
0.78803295 16.170488 1.5463828
0.80260456 15.470407 13.878469
1.1887225 23.068014 16.90266
1.175438 22.887852 13.553049
1.2647915 24.967709 8.7900763
0.95912004 19.065105 0.86371505
0.16563909 2.8231387 6.7219048
0.037208173 0.6507346 1.261765
0.24718168 4.3948488 6.5375371
0.29845008 5.3559661 6.4990649
0.21031193 1.7437348 30.208946
0.044859007 0.69455886 2.7172382
0.03626021 0.61013502 1.3276026
0.041353311 0.7098695 1.2332743
0.28247687 4.9001212 6.5740695
1.1875906 20.850742 22.718582
0.77911454 14.433472 14.284177
1.5900424 29.744551 24.100325
1.2266322 23.021759 15.199748
0.74837911 14.185552 5.8276234
0.84473342 16.172611 1.5468297
0.85474318 15.433959 13.848539
1.2690154 23.059687 16.899715
1.2569773 22.913738 13.570781
1.296432 23.861237 11.134222
1.3516819 24.958427 8.7884331
0.84858233 15.719605 2.2878699
1.0355959 19.246225 0.87117171
0.17549267 2.8225431 6.7219048
0.039479434 0.65060079 1.261765
0.26419976 4.422049 6.5788665
0.31714407 5.3548918 6.4990649
0.21643317 1.7432766 30.213938
0.047368906 0.69565207 2.7220774
0.03880097 0.61652261 1.3411063
0.043830965 0.70972085 1.2332743
0.82417071 14.338095 14.19306
1.6945245 29.750477 24.109739
1.3098304 23.067432 15.232645
1.3099256 23.212122 12.256375
0.89951855 16.139732 1.5441474
0.90334493 15.341425 13.768726
1.3492649 23.051083 16.896774
1.3359489 22.891998 13.560649
1.4385231 24.948841 8.7867899
0.90316468 15.711604 2.2871792
1.0819048 18.878386 0.85645992
0.18521599 2.8199642 6.7173023
0.041750215 0.65045899 1.261765
0.33603483 5.3569503 6.502902
0.22259046 1.743083 30.223921
0.049796898 0.69548249 2.7220774
0.046308089 0.70956349 1.2332743
0.31570676 4.8829951 6.5541196
0.9022491 14.105907 15.40133
0.87964225 14.424122 14.280673
1.7995373 29.763807 24.125433
1.3870717 23.008461 15.197007
1.3909431 23.207407 12.256375
0.95107865 15.245015 13.685589
1.4294697 23.042198 16.893829
1.4158489 22.887196 13.560649
1.4574246 23.761003 11.09226
1.5270435 24.967236 8.7950068
0.95800287 15.708355 2.2871792
0.19505838 2.8193004 6.7173023
0.044020489 0.65030926 1.261765
0.35473204 5.3557444 6.502902
0.22886227 1.7437265 30.24888
0.052318744 0.69655788 2.726917
0.048784643 0.70939755 1.2332743
0.33377439 4.8968945 6.5740695
0.93388832 14.481463 14.34025
1.9051607 29.784536 24.147402
1.4676439 23.00765 15.199748
1.4722241 23.206833 12.258695
1.6108152 25.53231 7.6097445
1.0052699 15.256505 13.698892
1.5098933 23.037069 16.893829
1.4954503 22.877813 13.558115
1.5441749 23.814648 11.119535
1.6132718 24.947617 8.7900763
1.7646552 27.362623 3.9164934
1.2810116 19.917356 0.89878142
0.2048984 2.8186023 6.7173023
0.04611982 0.64776278 1.257376
0.37342492 5.3544736 6.502902
0.23475394 1.7414867 30.223921
0.054749865 0.69637102 2.726917
0.091760784 1.2478631 2.6509595
0.051072326 0.70662171 1.2290084
0.35108113 4.898705 6.5780597
0.97983551 14.410513 14.273664
2.0096405 29.785467 24.153677
1.5468235 22.985699 15.188782
1.5532222 23.201551 12.258695
1.6273917 24.373211 9.9576616
1.6996108 25.521744 7.6083345
1.8862488 27.17975 24.347143
1.5902984 23.031658 16.893829
1.5752996 22.872454 13.558115
1.6279131 23.818167 11.123732
1.701309 24.955967 8.7950068
1.7773517 26.138557 6.409544
1.8631812 27.400761 3.9227097
1.3495142 19.89781 0.89817685
0.2147359 2.8178699 6.7173023
0.048380651 0.64759785 1.257376
0.04719463 0.64052105 1.0159175
0.39211321 5.3531375 6.502902
0.24099037 1.7418004 30.243887
0.057283536 0.69742835 2.7317562
0.097120434 1.2605581 2.6779668
0.052946497 0.69863749 1.2162106
0.36772683 4.8914404 6.5700793
1.0245358 14.328747 14.196564
2.1133235 29.774393 24.150541
1.6264585 22.971819 15.183299
1.6345124 23.200407 12.261013
1.7095352 24.32576 9.9408035
1.7886879 25.515656 7.6083345
1.9574587 28.063467 2.6184783
1.9778543 27.128315 24.307236
1.6703918 23.021935 16.890886
1.6551298 22.866816 13.558115
1.7227544 23.975307 11.199262
1.7884111 24.949877 8.7950068
1.8678882 26.122498 6.4071994
1.9591696 27.399029 3.9234002
1.4164741 19.858095 0.89676613
0.2245708 2.8171034 6.7173023
0.050453823 0.64503735 1.2529869
0.050514515 0.65438068 1.0365824
0.41104212 5.3549318 6.5067396
0.24666165 1.7380905 30.193972
0.059717666 0.69722414 2.7317562
0.10186994 1.2645512 2.6869693
0.054146249 0.68284947 1.1906151
0.38385326 4.8781114 6.5541196
1.0608844 13.601851 14.868432
1.0721452 14.293077 14.165023
2.2163751 29.755188 24.141123
1.7063254 22.961832 15.180558
1.7158138 23.198978 12.263332
1.7971667 24.356632 9.9557877
1.8787998 25.523611 7.612565
1.9589165 26.739407 5.1817131
2.0554063 28.056463 2.6184783
1.7507432 23.015963 16.890886
1.7349397 22.860899 13.558115
1.8067741 23.973673 11.20136
1.883635 25.051786 8.8328075
1.9590611 26.115818 6.4071994
2.0544276 27.387085 3.9227097
1.485783 19.853031 0.89676613
0.23456506 2.818249 6.7219048
0.052705117 0.64485729 1.2529869
0.053025078 0.65700519 1.0407152
0.42921889 5.3470755 6.4990649
0.25230998 1.7343624 30.144053
0.062263027 0.69826347 2.7365959
0.10610089 1.2620187 2.6824682
0.054805409 0.66186339 1.1564876
0.39939725 4.8587227 6.530179
1.1235056 13.783909 15.070565
1.1150513 14.200365 14.077409
2.3171999 29.708464 24.109739
1.7861423 22.951567 15.177817
1.797125 23.197264 12.265651
1.9678826 25.516897 7.612565
2.0552506 26.771587 5.1891737
2.1518044 28.029255 2.6166899
2.8285282 35.38763 31.699823
1.8310732 23.009712 16.890886
1.8143873 22.850407 13.555583
1.8904469 23.96722 11.20136
1.978851 25.143917 8.867321
2.0502105 26.10882 6.4071994
2.1500139 27.379747 3.9227097
0.24440117 2.8174131 6.7219048
0.054752026 0.64228308 1.2485977
0.055554587 0.65962023 1.0448482
0.44841626 5.351932 6.5067396
0.25849065 1.7343276 30.159029
0.064700037 0.69804186 2.7365959
0.1103154 1.2594719 2.6779668
0.055318739 0.6408813 1.1223601
0.41661233 4.8603005 6.5341692
1.18023 13.881241 15.18082
1.1608223 14.150181 14.031851
1.8659084 22.941023 15.175075
1.8780875 23.190849 12.265651
1.9675362 24.348112 9.9576616
2.0573266 25.514652 7.6139746
2.1463299 26.734873 5.183578
2.2500305 28.026539 2.6171372
2.961972 35.496609 31.80624
1.9113809 23.003181 16.890886
1.8941392 22.843933 13.555583
1.9744693 23.964998 11.203457
2.0666077 25.136856 8.867321
2.1417322 26.10635 6.4083719
2.245574 27.372076 3.9227097
0.25423428 2.8165429 6.7219048
0.056993674 0.642088 1.2485977
0.05785675 0.65942222 1.0448482
0.46653774 5.3439488 6.4990649
0.264543 1.7334148 30.159029
0.067136265 0.69781172 2.7365959
0.11451343 1.2569113 2.6734657
0.055919934 0.62250149 1.0924985
0.43411112 4.86482 6.5421491
1.2460198 14.072898 15.393979
1.9456227 22.930204 15.172334
1.9590273 23.184153 12.265651
2.0525153 24.341097 9.9576616
2.1463768 25.507315 7.6139746
2.2425103 26.761484 5.1901064
2.3474314 28.01355 2.6166899
3.0852134 35.478611 31.799587
1.9913164 22.99234 16.887943
1.9738678 22.837183 13.555583
2.0581107 23.957958 11.203457
2.1579692 25.171833 8.8821125
2.2332618 26.103558 6.409544
2.3411067 27.364069 3.9227097
2.4496725 28.691936 1.2552897
0.26461181 2.8214736 6.7357125
0.059234638 0.64188516 1.2485977
0.060158212 0.65921628 1.0448482
0.27063689 1.7327659 30.164021
0.06982179 0.70007455 2.7462747
0.11869492 1.2543366 2.6689644
0.056393508 0.60412562 1.0626371
0.44941989 4.845273 6.5182095
1.2957574 14.075214 15.40133
2.0252841 22.919107 15.169592
2.0403316 23.181587 12.26797
2.137063 24.329165 9.9557877
2.2358201 25.504446 7.6153851
2.3440299 26.846472 5.2078261
2.4465024 28.020069 2.618031
3.2093747 35.471348 31.802914
2.0719254 22.989275 16.890886
2.0539587 22.834446 13.558115
2.1421313 23.955151 11.205556
2.2449825 25.154739 8.8788261
2.3247976 26.100443 6.4107165
2.4370501 27.360662 3.9234002
2.5529075 28.718044 1.2567004
0.27540538 2.830255 6.7587252
0.061474871 0.64167446 1.2485977
0.062193137 0.65620083 1.0407152
0.27691221 1.733236 30.188978
0.12285984 1.2517482 2.6644633
0.057243057 0.5909459 1.0413074
1.3503649 14.127978 15.463808
2.1048918 22.907738 15.166851
2.121238 23.174322 12.26797
2.2219748 24.321556 9.9557877
2.325269 25.501265 7.6167946
2.4866064 27.376257 5.3104148
2.5451965 28.021276 2.6189253
3.3212924 35.333534 31.689846
2.1506529 22.965805 16.879114
2.1336532 22.827139 13.558115
2.2181771 23.866184 11.16779
2.3314667 25.132647 8.8738956
2.4163394 26.097012 6.4118891
2.5329983 27.35692 3.9240909
2.6531367 28.708958 1.2567004
0.063714363 0.64145595 1.2485977
0.064483322 0.65597975 1.0407152
0.28263372 1.7302644 30.154037
0.12700814 1.2491459 2.6599619
0.059044652 0.58814746 1.0370414
3.0584273 31.821714 31.495005
2.1848419 22.900249 15.166851
2.2025375 23.171186 12.270288
2.3077352 24.322884 9.9595337
2.4142709 25.492992 7.6167946
2.6006093 27.563032 5.3477192
2.6476717 28.061804 2.6233962
3.5895715 36.808182 33.020046
2.2265053 22.913906 16.846739
2.2133217 22.819551 13.558115
2.2966785 23.808603 11.144712
3.0568945 31.747259 11.1896
2.5083501 26.098093 6.4142337
2.6289504 27.352842 3.9247816
2.750948 28.674656 1.2556926
0.065953068 0.64122969 1.2485977
0.066772729 0.65575063 1.0407152
0.54789579 5.4038796 6.5796523
0.28857639 1.7286979 30.144053
0.13113977 1.2465301 2.6554608
0.060557522 0.58274978 1.0285096
0.50725788 4.9092383 6.6099796
3.167012 31.786001 31.470472
2.2631185 22.875837 15.155885
2.284276 23.172174 12.274926
2.3926239 24.31468 9.9595337
2.5037122 25.489183 7.6182051
2.7236025 27.827566 5.3999462
2.7514307 28.111864 2.6287611
3.728545 36.899448 33.113163
2.3016167 22.857733 16.811422
2.2933946 22.815975 13.560649
2.3748047 23.750763 11.121634
2.4984255 25.031178 8.8443127
2.599916 26.094013 6.4154058
2.7244134 27.343498 3.9247816
2.8534968 28.689737 1.2567004
0.30586666 2.8349855 6.7771349
0.068190977 0.64099556 1.2485977
0.069061324 0.65551358 1.0407152
0.56742448 5.4083099 6.5873275
0.29446283 1.7268265 30.12908
0.13549016 1.2460647 2.6554608
0.062312372 0.57994175 1.0242437
0.52535176 4.9164262 6.6219492
3.2786784 31.781847 31.47748
2.3395472 22.834522 15.133953
2.365598 23.168467 12.277245
2.4784234 24.315405 9.9632797
2.5931566 25.485062 7.6196151
2.8202267 27.813 5.399013
2.8495426 28.102089 2.6287611
3.8581018 36.893635 33.119812
2.376363 22.801317 16.776104
2.3734691 22.812119 13.563182
2.4581633 23.746845 11.123732
2.5721941 24.890785 8.7982941
2.6914842 26.089615 6.4165783
2.8203516 27.338747 3.9254723
2.9541368 28.68457 1.2569019
0.31489506 2.826134 6.7587252
0.070428059 0.64075357 1.2485977
0.071653962 0.65806597 1.0448482
0.58768195 5.4190426 6.6026769
0.3004888 1.7257881 30.12908
0.13959588 1.2434207 2.6509595
0.064048372 0.57712859 1.0199777
0.54449415 4.9325333 6.6458898
3.3903546 31.777306 31.484491
2.4139516 22.776318 15.101055
2.4445953 23.142447 12.26797
2.562799 24.301996 9.9614077
2.6826022 25.480625 7.6210246
2.890126 27.54406 5.3495846
2.9471002 28.087019 2.628314
3.9880655 36.891079 33.129787
2.4485786 22.724566 16.72607
2.4484732 22.760834 13.53785
2.5400741 23.729094 11.119535
2.660569 24.895741 8.8032246
2.7830532 26.084894 6.4177504
2.91629 27.333662 3.926163
3.0558341 28.688988 1.2575064
0.26043719 2.0495276 13.133911
0.072664268 0.64050388 1.2485977
0.073950604 0.65781182 1.0448482
0.60623765 5.4137726 6.5988393
0.3065111 1.7247287 30.12908
0.14418598 1.2450883 2.6554608
0.066062532 0.5769015 1.0199777
0.56068522 4.9216208 6.6339197
3.5016477 31.768818 31.487993
2.4875233 22.713718 15.065417
2.5272853 23.151386 12.277245
2.6501245 24.315943 9.9707727
2.7725677 25.480642 7.6238451
2.9428225 27.133347 5.2731099
3.0435133 28.061707 2.6269727
4.1176438 36.884357 33.13644
2.5189462 22.635534 16.667206
2.5236242 22.713587 13.515052
2.6248839 23.738127 11.127928
2.7490098 24.900383 8.8081551
2.8746219 26.079851 6.4189224
3.0127695 27.333158 3.9275444
3.157052 28.688078 1.2579095
0.26799279 2.051688 13.153667
0.074899606 0.64024633 1.2485977
0.076570749 0.66034496 1.0489812
0.62586725 5.4179916 6.6065145
0.15008007 1.257547 2.6824682
0.068381988 0.57925743 1.0242437
0.57891619 4.9286118 6.6458898
3.6129236 31.759945 31.491499
2.5635054 22.67581 15.046226
2.5986578 23.058786 12.233188
2.7349868 24.306543 9.9707727
2.862566 25.480345 7.6266651
2.9937809 26.73237 5.1985002
3.1408942 28.045961 2.6265256
4.2502131 36.903137 33.166367
2.6219192 22.835415 16.820251
2.5950382 22.636118 13.474521
2.7010403 23.6702 11.100654
2.8348422 24.881252 8.8048687
2.9661896 26.074488 6.420095
3.1087213 27.327394 3.9282351
3.2577364 28.681847 1.2581111
0.27646631 2.0442908 13.114154
0.077514783 0.6375224 1.2442087
0.079566509 0.65999067 1.0489812
0.65139186 5.4149823 6.6065145
0.32094923 1.7221004 30.12908
0.15702987 1.2632793 2.6959715
0.071211942 0.57891637 1.0242437
3.752305 31.750963 31.49851
2.6512022 22.568893 14.983172
2.7001717 23.020359 12.219275
2.8457968 24.298487 9.9726448
2.980948 25.490913 7.6337152
3.1157324 26.683811 5.1919718
3.2724445 28.025904 2.6260786
4.4254017 36.893822 33.176346
2.7506187 22.999397 16.949751
2.6999967 22.57608 13.446656
2.8159742 23.615665 11.081771
2.9612987 24.871271 8.8065119
3.0986996 26.063967 6.421267
3.2499204 27.335897 3.9316883
3.4028661 28.664991 1.2581111
0.28114226 2.0413001 13.099337
0.079845414 0.64447522 1.257376
0.08106377 0.65980846 1.0489812
0.66217566 5.4169035 6.610352
0.4085196 3.2436326 6.823585
0.072342552 0.58140439 1.0285096
0.10470785 0.84595942 1.2034967
3.8362715 31.748112 31.505518
2.7008624 22.51668 14.953015
2.7450318 22.952595 12.186811
2.8877282 24.181494 9.9276924
3.0326281 25.470324 7.6294851
3.1721919 26.682104 5.1929045
3.3299592 28.009098 2.6251845
4.483922 36.83786 33.133114
2.8073139 23.130989 17.049818
2.7276764 22.50762 13.408658
2.8467708 23.593687 11.073379
2.9830315 24.759285 8.7687111
3.1339276 26.049963 6.4189224
3.2803619 27.307323 3.9282351
3.4390745 28.670732 1.2585142
0.28902772 2.0456917 13.133911
0.081296533 0.63705122 1.2442087
0.083481543 0.65950692 1.0489812
0.68297011 5.4143209 6.610352
0.41985247 3.2290137 6.7965775
0.07544367 0.5862695 1.0370414
0.10901622 0.85149109 1.2114768
3.94751 31.738066 31.509022
5.1694341 41.740585 33.995876
2.8131382 22.74732 15.112021
2.8269703 22.924795 12.177537
2.9763386 24.170748 9.9276924
3.1186957 25.363268 7.6012845
3.2711611 26.680052 5.1947694
3.4338071 28.00659 2.6260786
4.6280336 36.789925 33.10651
2.9011507 23.127554 17.055704
2.8115759 22.445162 13.37826
2.9341557 23.523521 11.046103
3.079479 24.72368 8.7604933
3.2390733 26.041996 6.420095
3.3947175 27.293343 3.9282351
3.5560606 28.631287 1.2575064
0.2970587 2.050822 13.173426
0.081960864 0.62489051 1.2222633
0.085419744 0.65642107 1.0448482
0.70227778 5.4150825 6.6141901
0.4314096 3.2296863 6.8010788
0.077489674 0.58600259 1.0370414
0.11198781 0.85110533 1.2114768
4.0591769 31.731167 31.516031
5.2978883 41.587151 33.886032
2.8999116 22.795433 15.150402
2.8980553 22.844473 12.140435
3.0513697 24.086624 9.8977242
3.2078133 25.356989 7.6026945
3.363657 26.663597 5.1938372
3.5315473 27.994434 2.6260786
4.7334366 36.59581 32.946888
2.9834146 23.129313 17.064533
2.9091823 22.58485 13.466921
3.0070109 23.441111 11.012534
3.1591616 24.661257 8.7424145
3.3182383 25.938927 6.3978214
3.4949951 27.320623 3.9337606
3.6642108 28.683123 1.2601264
0.30625916 2.0463257 13.153667
0.088249534 0.65320706 1.0407152
0.72873235 5.4115858 6.6141901
0.44831422 3.2273834 6.8010788
0.081979915 0.59592348 1.0541052
0.1160337 0.84752196 1.2074867
4.2035952 31.715956 31.519535
5.3581824 40.590252 33.095139
3.0115216 22.844221 15.191525
3.0131915 22.887657 12.17058
3.158798 24.026012 9.878993
3.3147795 25.246466 7.5744939
3.4805081 26.544558 5.174252
3.664427 27.947216 2.6233962
4.9051652 36.471466 32.857098
3.1004438 23.113916 17.064533
3.0406282 22.698017 13.542917
3.12009 23.353069 10.978966
3.2850409 24.587637 8.7226925
3.448247 25.843508 6.3790641
3.623769 27.158966 3.9137309
3.8180273 28.652971 1.2597233
0.31447309 2.042721 13.13885
0.090482742 0.65006047 1.0365824
0.75133103 5.4149666 6.6218653
0.46157435 3.2277126 6.8055801
0.082174718 0.58009636 1.0285096
0.11985584 0.85003304 1.2114768
4.3373761 31.705137 31.526545
3.1094401 22.847979 15.20249
3.1390064 23.125582 12.302752
3.2433863 23.925854 9.8434057
3.4127693 25.175316 7.5575738
3.5830994 26.466465 5.162128
3.7674289 27.827988 2.6140075
5.0499935 36.440388 32.847122
3.1943109 23.109293 17.070419
3.1299505 22.672817 13.535316
3.367846 24.490635 8.6931095
3.5388558 25.767477 6.3638239
3.7246563 27.120323 3.9102774
3.9330165 28.637415 1.2597233
0.3210035 2.0401318 13.128972
0.092637919 0.64975685 1.0365824
0.76793033 5.402925 6.610352
0.47146374 3.228483 6.8100815
0.08576443 0.5927555 1.0498393
0.1228072 0.85265613 1.2154669
4.4490128 31.696869 31.533554
5.3527918 38.281281 31.249727
3.1897535 22.841127 15.205232
3.233767 23.215395 12.356084
3.381819 24.309273 10.004487
3.4823718 25.064079 7.5279627
3.6588109 26.401554 5.1518693
3.8562012 27.825878 2.6149015
3.2674611 23.103144 17.073362
3.2011635 22.66287 13.535316
3.3962514 24.135187 11.354517
3.4523258 24.564707 8.7226925
3.6038079 25.675034 6.3438945
3.7940941 27.030687 3.8992264
3.9900842 28.463055 1.2530729
0.32750511 2.0351634 13.104276
0.094498232 0.64664513 1.0324494
0.78817183 5.4097271 6.6218653
0.48305249 3.2289705 6.8145823
0.08974696 0.60535139 1.0711689
0.1249024 0.84626037 1.2074867
4.5616603 31.695263 31.547573
5.4863858 38.26236 31.249727
3.2706501 22.838133 15.210714
3.3185427 23.230276 12.369997
3.4804046 24.393698 10.04382
3.5820217 25.137255 7.5533433
3.7378125 26.296215 5.1341491
3.9371896 27.698849 2.6046188
5.0697579 34.880085 31.47369
3.348666 23.095596 17.076305
3.2808702 22.655825 13.53785
3.4876077 24.172598 11.377596
3.5447874 24.599245 8.7391281
3.703795 25.734463 6.3614793
3.8792543 26.953558 3.8902476
4.0837278 28.409389 1.2514606
0.33561707 2.0401411 13.14379
0.097171783 0.64909428 1.0365824
0.80705047 5.4069428 6.6218653
0.49432075 3.2272646 6.8145823
0.12785564 0.84581923 1.2074867
4.6743517 31.693262 31.561592
5.6216106 38.254532 31.259144
3.3509574 22.830713 15.213455
3.4008946 23.227318 12.374635
3.568887 24.404335 10.053185
3.6732116 25.148331 7.5603933
3.8345387 26.317038 5.1406779
4.0266724 27.63566 2.600148
5.1920309 34.865864 31.477015
3.4298582 23.087767 17.079248
3.3611994 22.652765 13.542917
3.5414305 23.953749 11.281086
3.6389108 24.64278 8.7588501
3.7936027 25.721378 6.3614793
3.9682584 26.905558 3.8854129
4.1726766 28.325766 1.2486391
0.33953324 2.0394931 13.14379
0.098644279 0.64887214 1.0365824
0.50389403 3.2257836 6.8145823
0.62770653 4.0505514 6.7747231
0.1326618 0.86032629 1.2274369
4.7317648 31.69916 31.575607
5.672112 38.089676 31.133606
3.3960135 22.832512 15.218938
3.4415808 23.194454 12.360722
3.6193113 24.392223 10.051312
3.7420492 25.249723 7.5928245
3.8942404 26.308268 5.1406779
4.0788555 27.522287 2.5907595
5.2726593 34.782017 31.413832
3.4908946 23.082705 17.082191
3.4250889 22.647551 13.545449
3.6388938 24.118156 11.362909
3.7120111 24.631874 8.7588501
3.8801839 25.747784 6.3708577
4.0741653 27.034967 3.9054427
4.2472291 28.183329 1.2433994
0.34981212 2.0353901 13.128972
0.1020404 0.64834678 1.0365824
0.52112454 3.2252502 6.8190837
0.64849353 4.0446343 6.7704568
4.597116 28.894812 31.796238
4.8998556 31.688047 31.589626
5.65486 36.655373 29.98807
3.5161541 22.818548 15.221681
3.5656712 23.19363 12.369997
3.7505007 24.395847 10.060678
3.8742044 25.229784 7.5928245
4.0445967 26.37006 5.1565323
4.3181424 28.12076 2.6470914
5.4332833 34.617451 31.290787
3.6129575 23.072096 17.088078
3.5449579 22.637825 13.550516
3.7672276 24.112226 11.369204
3.8387477 24.598104 8.7539196
4.0194426 25.75593 6.3778915
4.227881 27.091551 3.9164934
4.4632978 28.600025 1.2613356
0.35642552 2.0334537 13.124032
0.10396363 0.64804113 1.0365824
0.52844107 3.2240596 6.8190837
0.65766883 4.0431523 6.7704568
4.6565442 28.878426 31.788889
5.0126672 31.684843 31.603643
5.7672887 36.578743 29.940992
3.5931046 22.815023 15.227162
3.6425645 23.181679 12.369997
3.8271239 24.383945 10.060678
3.9534471 25.217489 7.5928245
4.135725 26.440447 5.1723866
4.4389811 28.3792 2.6716807
5.4591479 34.197529 30.924982
3.6739838 23.066551 17.091022
3.6009386 22.633352 13.553049
3.8261914 24.130512 11.381792
3.8952875 24.593994 8.7555628
4.075655 25.761858 6.3814082
4.2846122 27.082636 3.9164934
4.5478301 28.778919 1.2689937
0.10576934 0.6448974 1.0324494
0.53969193 3.2221954 6.8190837
0.67177808 4.0408325 6.7704568
4.7611794 28.88541 31.814615
5.1249456 31.677713 31.614157
5.8992753 36.585289 29.962961
3.6740518 22.8106 15.232645
3.724164 23.173195 12.372315
3.9136858 24.379593 10.064424
4.0490432 25.2509 7.6069245
4.2279944 26.42585 5.1723866
4.4790087 27.994724 2.6381497
5.4449611 33.360191 30.18672
3.7551284 23.057577 17.093966
3.6813066 22.629156 13.558115
3.9162104 24.152847 11.398577
3.981868 24.584909 8.757206
4.1678848 25.761869 6.3849258
4.3791218 27.067516 3.9164934
4.6498537 28.772736 1.2693968
0.10801982 0.64452422 1.0324494
0.55093622 3.2202919 6.8190837
0.68675262 4.0436049 6.7789888
4.8636684 28.878643 31.82564
5.2378182 31.673706 31.628176
6.0294776 36.579838 29.975515
3.7543328 22.801762 15.235388
3.8057492 23.164427 12.374635
3.9995131 24.370356 10.066297
4.136385 25.23188 7.605515
4.3202119 26.410931 5.1723866
4.5783091 27.988749 2.6390438
5.5564623 33.311516 30.160116
3.8369186 23.052301 17.099852
3.7609818 22.62042 13.560649
3.9982698 24.125599 11.392282
4.0684323 24.57552 8.7588501
4.2601643 25.761549 6.3884425
4.4735785 27.052065 3.9164934
4.7502613 28.756329 1.2693968
0.11026897 0.64414328 1.0324494
0.56217378 3.2183492 6.8190837
4.9667435 28.874855 31.840342
5.3507242 31.669292 31.642195
6.1571279 36.558567 29.975515
3.8352902 22.796764 15.24087
3.8873184 23.155369 12.376953
4.086091 24.365391 10.070043
4.2268133 25.23148 7.6097445
4.415617 26.41507 5.1761169
4.6850123 28.026628 2.6439619
5.6727071 33.29192 30.160116
3.91804 23.042751 17.102795
3.8413627 22.615654 13.565716
4.0801864 24.098072 11.385988
4.155767 24.570478 8.7621365
4.3524919 25.7609 6.3919592
4.5679808 27.036283 3.9164934
4.8555994 28.769129 1.2706059
0.56602681 3.1466744 10.26814
0.112032 0.64098251 1.0283164
0.24545008 1.2216698 11.578444
0.57302231 3.2142239 6.8145823
5.0663328 28.850666 31.832991
5.4630575 31.660967 31.652708
6.2814045 36.51767 29.959822
3.9141343 22.779116 15.238129
3.9688709 23.146025 12.379272
4.1726823 24.360119 10.073789
4.3172889 25.230757 7.6139746
4.509449 26.40918 5.1779823
4.776947 27.975739 2.6408322
5.790803 33.282948 30.170092
3.9998336 23.0369 17.108681
3.9210191 22.606354 13.568249
4.1588669 24.052378 11.371303
4.2423129 24.560478 8.7637806
4.4448676 25.759922 6.3954763
4.6631689 27.025051 3.9171841
4.9559927 28.752005 1.2706059
0.57943249 3.1578929 10.311088
0.11377431 0.63781732 1.0241835
0.25014102 1.2228944 11.59833
0.48739719 2.6028373 10.232863
0.58423853 3.212204 6.8145823
5.1694012 28.846153 31.847692
5.5698299 31.620632 31.631681
3.992902 22.761198 15.235388
4.050405 23.136393 12.381591
4.2592869 24.354538 10.077536
4.4028578 25.201359 7.6097445
4.6032944 26.402956 5.1798477
4.8403578 27.762655 2.6229491
5.9108639 33.284592 30.190046
4.0816336 23.030758 17.114567
4.0006576 22.596773 13.570781
4.2451663 24.051121 11.377596
4.3304791 24.559471 8.7687111
4.5364456 25.75382 6.3978214
4.7583346 27.013487 3.9178748
5.0589228 28.749292 1.2712106
0.11600002 0.6374163 1.0241835
0.25375521 1.2188828 11.568501
0.49553683 2.5961816 10.213507
0.59544766 3.2101452 6.8145823
5.2682323 28.817926 31.836664
5.6776485 31.586956 31.617662
6.8389788 38.162521 31.343884
4.0701184 22.734772 15.227162
4.1319208 23.126474 12.383909
4.3459034 24.34865 10.081282
4.4908004 25.185835 7.6097445
4.6971512 26.3964 5.1817131
6.0263476 33.260082 30.18672
4.1634398 23.024324 17.120453
4.0802774 22.586914 13.573315
4.2936974 23.839624 11.285282
4.4178534 24.553499 8.7719984
4.6280351 25.747395 6.4001656
4.8534765 27.001587 3.9185655
5.1610122 28.741293 1.2716136
0.11771052 0.63424075 1.0200505
0.25800839 1.2179896 11.568501
0.50339592 2.5882666 10.189309
0.60745865 3.2123253 6.823585
5.7878728 31.566944 31.617662
6.9637499 38.092472 31.306221
4.1502042 22.724541 15.229904
4.2134166 23.116268 12.386229
4.4325304 24.342453 10.085028
4.5778289 25.165283 7.6083345
4.7901406 26.384676 5.1826453
6.4002414 34.634056 31.450411
4.2445173 23.013628 17.123398
4.1598763 22.576773 13.575848
4.3670464 23.770926 11.260105
4.5052395 24.547218 8.7752848
4.7205124 25.745428 6.4036827
4.9494863 26.994223 3.9199469
5.2640066 28.737844 1.2722182
0.1194003 0.63106108 1.0159175
0.26248333 1.2181238 11.578444
0.51413816 2.595125 10.223186
0.61825603 3.2080476 6.8190837
5.9013042 31.564077 31.635187
7.1123681 38.152111 31.375267
4.2394552 22.763355 15.265544
4.2940817 23.101419 12.386229
4.5200138 24.340508 10.090647
4.6647692 25.144434 7.6069245
4.8831058 26.372627 5.183578
6.5418372 34.721577 31.550175
4.3263173 23.006615 17.129282
4.2402506 22.570587 13.580914
4.4516668 23.764458 11.264301
4.5926352 24.540627 8.7785721
4.8121386 25.738348 6.4060273
5.0455036 26.986517 3.9213283
5.3670406 28.734028 1.2728229
0.12106929 0.62787735 1.0117847
0.26673377 1.2172002 11.578444
0.52219903 2.5883858 10.203828
6.0141177 31.557297 31.649204
4.3188882 22.748419 15.265544
4.3755193 23.090643 12.388547
4.6066756 24.333691 10.094393
4.7507281 25.118572 7.6041045
4.9769559 26.365074 5.1854434
6.6594777 34.680199 31.533548
4.4081211 22.999311 17.135168
4.3190112 22.555649 13.580914
4.6800394 24.533722 8.7818594
4.9046826 25.73572 6.409544
5.1415277 26.978468 3.9227097
5.471046 28.734749 1.273629
0.12271754 0.62468976 1.0076517
0.27098098 1.2162616 11.578444
0.53021914 2.5816224 10.18447
6.1269555 31.550114 31.663221
4.3966799 22.724993 15.26006
4.456934 23.079578 12.390866
4.694222 24.331116 10.100012
4.8365636 25.092415 7.6012845
5.0698853 26.352364 5.1863761
5.3307319 27.708183 2.6260786
6.7819276 34.66407 31.540199
4.4899263 22.991718 17.141056
4.4076247 22.591208 13.611313
4.6373997 23.835264 11.312556
4.7683525 24.531141 8.7867899
4.9963403 25.727985 6.4118891
5.2375565 26.970078 3.9240909
5.5741706 28.73019 1.2742336
0.12489736 0.62425762 1.0076517
0.27498901 1.2142684 11.568501
0.54077095 2.5871377 10.213507
1.4397893 7.0709543 14.984285
6.2398176 31.54253 31.677238
4.4978104 22.820276 15.334081
4.5383244 23.068226 12.393185
4.7809138 24.323683 10.103758
4.9195013 25.051844 7.5942345
5.162786 26.339329 5.1873088
5.433166 27.718731 2.6287611
6.9101834 34.676804 31.573454
4.5717325 22.983835 17.146942
4.4931779 22.60951 13.631577
4.7232194 23.832289 11.318851
4.8576221 24.532879 8.7933636
5.0898905 25.72946 6.4165783
5.33359 26.961348 3.9254723
5.6773295 28.72526 1.2748381
3.4105055 16.644615 31.204062
0.12763765 0.62657511 1.0117847
0.27946541 1.2143402 11.578444
0.54718298 2.5729399 10.165112
1.4644628 7.0658855 14.984285
6.3519969 31.531046 31.687756
4.5774407 22.804436 15.334081
4.6196904 23.056589 12.395503
4.8676095 24.315937 10.107504
5.022912 25.114487 7.6182051
5.256619 26.33078 5.1891737
5.5415888 27.7582 2.6341259
7.0311861 34.65247 31.573454
4.6535378 22.975658 17.152828
4.5797677 22.631714 13.654376
4.8135633 23.851248 11.335635
4.9460282 24.529659 8.7982941
5.1825519 25.72583 6.420095
5.430604 26.95713 3.9275444
5.7805219 28.719959 1.2754427
0.45748028 2.1027591 10.369352
3.4563615 16.573994 31.094336
0.13096724 0.6316365 1.0200505
0.28431022 1.2159522 11.603301
0.5564267 2.5722427 10.169951
1.4868721 7.0500803 14.96178
6.4648871 31.522654 31.701771
4.6645498 22.82519 15.358754
4.7010303 23.044662 12.397822
4.955236 24.312424 10.113123
5.1162906 25.125004 7.6266651
5.3504558 26.321898 5.1910391
5.6364655 27.728924 2.6332319
7.1551237 34.642342 31.586756
4.7361579 22.971151 17.161657
4.6700454 22.670479 13.687308
4.9333258 24.012127 11.419558
5.0354209 24.530746 8.8048687
5.276226 25.726629 6.4247847
5.5266585 26.947712 3.9289258
5.8827438 28.709396 1.2758458
0.46481749 2.1011496 10.369352
3.5226457 16.601656 31.168949
0.2887997 1.2159897 11.613245
1.5087321 7.0320759 14.934772
6.5770688 31.51037 31.712288
4.7441964 22.808769 15.358754
4.7832437 23.036785 12.40246
5.0419555 24.304056 10.116869
5.2127242 25.149265 7.6393552
5.4423037 26.303061 5.1910391
7.2775407 34.624462 31.593409
4.8179736 22.962393 17.167543
4.7473831 22.645601 13.682241
4.9799576 23.81706 11.335635
5.1248808 24.531507 8.8114414
5.3689761 25.722332 6.4283013
5.6237254 26.942801 3.9309978
5.9859824 28.703362 1.2764504
0.47214907 2.0995142 10.369352
3.5992711 16.675879 31.331347
0.29429412 1.2201556 11.662959
1.534662 7.0331478 14.948277
6.6899834 31.501173 31.726303
4.8246508 22.79616 15.361495
4.8645434 23.024284 12.404778
5.1286769 24.295382 10.120615
5.3143396 25.19663 7.6590958
5.5350976 26.288712 5.1919718
7.4007001 34.609802 31.603384
4.9006295 22.957293 17.176373
4.8183093 22.590948 13.659443
5.0413437 23.69743 11.28738
5.2173533 24.545805 8.8229475
5.4647894 25.73196 6.4353352
5.7208252 26.937536 3.9330697
6.0882134 28.692064 1.2768534
0.48060966 2.1028161 10.393827
3.6523244 16.63982 31.287457
0.29766268 1.2154969 11.628159
1.5596743 7.0298724 14.952777
4.4671149 20.317902 27.621447
6.8021617 31.488087 31.736818
4.9050746 22.783266 15.364236
4.9467454 23.015825 12.409416
5.2163725 24.290928 10.126234
5.4022603 25.177927 7.6590958
5.6278572 26.274033 5.1929045
5.9390445 27.726818 2.638597
7.5238466 34.594704 31.613359
4.9833083 22.951897 17.185204
4.890739 22.5445 13.641711
5.1326714 23.719612 11.306262
5.2960167 24.495132 8.8114414
5.5545774 25.712729 6.4353352
5.8169112 26.927084 3.9344511
6.1914926 28.685289 1.2774581
0.4877165 2.1001339 10.388932
3.6926503 16.547495 31.138226
0.3016462 1.2134159 11.618217
1.5851616 7.0286326 14.96178
4.5386677 20.305126 27.625439
6.9150949 31.478083 31.750835
4.9845734 22.766006 15.364236
5.0289474 23.007071 12.414054
5.3040991 24.28616 10.131853
5.4911375 25.163603 7.6605062
