# .PCD v0.7 - Point Cloud Data file format
VERSION 0.7
FIELDS x y z
SIZE 4 4 4
TYPE F F F
COUNT 1 1 1
WIDTH 1430
HEIGHT 1
VIEWPOINT 0 0 0 1 0 0 0
POINTS 1430
DATA ascii
-0.92441833 -1.0056649 0.42017427
-0.92151588 -1.0025036 0.28213498
-0.91251683 -0.99305403 0.14807875
-0.10606068 -0.059357677 12.428801
-1.4838027 -1.5504245 13.642655
-1.6179219 -1.7064478 11.328816
-1.505931 -1.6038679 7.0804543
-0.75028437 -0.80305243 2.6486709
-0.95045459 -1.0200759 2.6223795
-1.0984315 -1.1813241 2.4417849
-1.0701748 -1.1521316 1.9592969
-0.54474539 -0.51634228 12.818007
-1.0885788 -1.1130105 14.476831
-1.6088994 -1.701027 9.0520449
-1.2862771 -1.3689723 5.1624579
-0.84609777 -0.90398282 2.6239522
-1.0637596 -1.1392564 2.6197031
-1.0806738 -1.1589714 2.1730726
-1.0427288 -1.1198279 1.7370685
-1.0250427 -1.1074011 1.5626749
-0.99302232 -1.0739225 1.2617759
-0.96934116 -1.0486729 1.0208856
-0.95380503 -1.0325774 0.82237315
-0.94721442 -1.0257944 0.65243381
-0.93080407 -1.0083686 0.49330926
-0.9292441 -1.0073764 0.35167316
-0.91828287 -0.9954899 0.21453427
-1.008299 -1.0862595 1.4011915
-0.98310089 -1.059845 1.1361488
-0.96261656 -1.0381184 0.91755313
-0.95068806 -1.0263207 0.73417598
-0.94044334 -1.0156093 0.57088763
-0.92462122 -0.99886501 0.41900194
-0.9216457 -0.99564677 0.28144431
-0.91258454 -0.9861958 0.14787722
-0.10622822 -0.058967568 12.4238
-1.4929806 -1.5491514 13.67723
-1.6273848 -1.7044718 11.353292
-1.4971619 -1.5834178 7.0136466
-0.75174415 -0.79900581 2.6440685
-0.95400953 -1.016752 2.6223795
-1.0967779 -1.1713207 2.4293861
-1.0698106 -1.1437075 1.951622
-0.54633397 -0.51424009 12.813016
-1.0924573 -1.1092039 14.476831
-1.256761 -1.3195252 7.0533624
-1.2815588 -1.3544466 5.1249151
-0.84924811 -0.90102386 2.6239522
-1.0677297 -1.1355362 2.6197031
-1.0785247 -1.1486025 2.1611025
-1.0419934 -1.1112354 1.7297182
-1.0240384 -1.0985991 1.5556659
-0.99145979 -1.0647527 1.2554989
-0.96729761 -1.0391617 1.0154026
-0.95136923 -1.0227549 0.81773555
-0.94763237 -1.0190868 0.6505608
-0.92778605 -0.99808633 0.49048921
-0.92941159 -1.0005276 0.35074055
-0.9183628 -0.9886297 0.21408717
-1.0069851 -1.077278 1.3945405
-0.98127604 -1.0504994 1.1302625
-0.96035016 -1.0284506 0.91248679
-0.94807315 -1.0163585 0.72997987
-0.94076228 -1.0088668 0.56924409
-0.92478794 -0.99207592 0.41782963
-0.9183622 -0.98517895 0.28006294
-0.90920961 -0.97569442 0.14747415
-0.10639432 -0.058577005 12.4188
-1.5021672 -1.5478328 13.711804
-1.6368535 -1.7024503 11.377769
-1.4903271 -1.5652103 6.9563828
-0.75452864 -0.79637688 2.6440685
-0.95590794 -1.011675 2.6179905
-1.095068 -1.1613431 2.4169872
-1.067203 -1.132967 1.9401096
-0.54770333 -0.51193619 12.803033
-1.0963225 -1.1053838 14.476831
-1.2630996 -1.3169444 7.0630412
-1.2779455 -1.3412201 5.0920658
-0.85238814 -0.89805394 2.6239522
-1.071687 -1.1318022 2.6197031
-1.0783868 -1.140452 2.1531224
-1.0412108 -1.1026617 1.7223679
-1.0205445 -1.0872175 1.5451521
-0.98984545 -1.0556068 1.249222
-0.96805942 -1.0327282 1.0126611
-0.95190507 -1.0161948 0.81541675
-0.94484633 -1.0090051 0.6468147
-0.92798615 -0.99133968 0.48907918
-0.92954266 -0.99368989 0.34980792
-0.91500407 -0.97814441 0.21319301
-1.0030615 -1.0656004 1.384564
-0.97939789 -1.0411795 1.1243762
-0.96098113 -1.0219518 0.90995359
-0.94850767 -1.009735 0.72788185
-0.93781304 -0.9986921 0.56595707
-0.92491871 -0.98529804 0.4166573
-0.91840613 -0.97835672 0.27937225
-0.90919119 -0.96887165 0.14727263
-0.10659815 -0.058205262 12.4188
-1.5119063 -1.547025 13.751318
-1.6456194 -1.6996521 11.397349
-1.4875163 -1.5513794 6.9182067
-0.7559551 -0.79232478 2.6394658
-0.95943362 -1.0083321 2.6179905
-1.0933018 -1.1513917 2.4045882
-1.0667396 -1.1245842 1.9324346
-0.5492751 -0.50982505 12.79804
-1.1001744 -1.1015501 14.476831
-1.2659422 -1.3107193 7.0533624
-1.2730607 -1.3267902 5.0545239
-0.85551775 -0.89507306 2.6239522
-1.0738314 -1.1261669 2.615437
-1.0761271 -1.1301343 2.1411526
-1.0403811 -1.0941072 1.7150176
-1.0194336 -1.0784653 1.538143
-0.98817945 -1.0464853 1.2429451
-0.96591771 -1.0232615 1.0071782
-0.94936699 -1.0064213 0.81077915
-0.94518197 -1.0023279 0.64494163
-0.92485988 -0.9811132 0.4862591
-0.92626917 -0.98328799 0.34794268
-0.91499817 -0.97131962 0.21274593
-1.0016376 -1.0566732 1.377913
-0.97746688 -1.0318857 1.1184899
-0.95861429 -1.0123309 0.9048872
-0.94578862 -0.99982387 0.72368574
-0.93804884 -0.99198139 0.56431359
-0.9250133 -0.97853136 0.41548499
-0.91841376 -0.97154635 0.27868158
-0.9091363 -0.96206099 0.14707109
-0.10676145 -0.057813693 12.4138
-1.5167522 -1.5411843 13.746379
-1.6550967 -1.6975423 11.421825
-1.4597411 -1.5118173 6.7655034
-0.75871623 -0.7896812 2.6394658
-0.96294743 -1.004977 2.6179905
-1.0914798 -1.1414673 2.3921895
-1.0640163 -1.1139007 1.920922
-0.55062634 -0.50751388 12.788058
-1.1040128 -1.0977031 14.476831
-1.278398 -1.314401 7.0969167
-1.2692901 -1.3136519 5.0216746
-0.85712701 -0.890513 2.6194508
-1.0777559 -1.1224117 2.615437
-1.0758942 -1.1220213 2.1331723
-1.0395043 -1.0855718 1.7076672
-1.0182743 -1.0697343 1.5311339
-0.98646188 -1.0373886 1.2366682
-0.96372169 -1.0138224 1.0016953
-0.94677234 -0.99667799 0.80614156
-0.94548267 -0.99566084 0.64306861
-0.92497629 -0.97439969 0.4848491
-0.92631507 -0.97648501 0.34701008
-0.91152841 -0.96089393 0.21185179
-1.0001636 -1.0477688 1.3712621
-0.97827291 -1.0255427 1.1155467
-0.95916718 -1.0058588 0.902354
-0.94301212 -0.98994422 0.71948963
-0.93499279 -0.98186165 0.56102657
-0.92507207 -0.97177589 0.41431266
-0.9149707 -0.96116096 0.27730021
-0.90904492 -0.95526248 0.14686957
-0.10696261 -0.057440672 12.4138
-1.5243107 -1.5380877 13.766136
-1.6645792 -1.695387 11.446301
-1.4462775 -1.4874501 6.6796074
-0.7601096 -0.78562409 2.6348634
-0.96478635 -0.99988598 2.6136014
-1.0915537 -1.1335964 2.3839235
-1.0634539 -1.1055598 1.913247
-0.5521813 -0.50539416 12.783066
-1.1078378 -1.0938426 14.476831
-1.2829783 -1.3099306 7.0969167
-1.2618327 -1.2968458 4.9747467
-0.86023027 -0.8875156 2.6194508
-1.0816672 -1.1186429 2.615437
-1.0756179 -1.1139239 2.1251922
-1.0362275 -1.0746157 1.6966418
-1.0170662 -1.0610245 1.5241249
-0.98738492 -1.0311276 1.2335297
-0.96147174 -1.0044112 0.99621236
-0.94718349 -0.99016607 0.80382276
-0.94574839 -0.98900396 0.6411956
-0.92505711 -0.96769744 0.48343906
-0.92293167 -0.96614152 0.34514484
-0.91143703 -0.9541052 0.21140471
-1.0012273 -1.0415795 1.3679365
-0.97624624 -1.0162917 1.1096603
-0.95670074 -0.99628603 0.89728767
-0.94332004 -0.98337126 0.71739161
-0.93514603 -0.97518367 0.55938309
-0.92509484 -0.96503204 0.41314036
-0.91489327 -0.95438647 0.27660954
-0.90891719 -0.94847649 0.14666803
-0.10716246 -0.057066955 12.4138
-1.5313172 -1.5344073 13.780953
-1.6740669 -1.6931863 11.470778
-1.4389281 -1.4695947 6.6223435
-0.76284724 -0.78296602 2.6348634
-0.96827078 -0.99651217 2.6136014
-1.0896269 -1.1237187 2.3715248
-1.0606161 -1.0949346 1.9017346
-0.5535143 -0.50307584 12.773083
-1.1116493 -1.0899689 14.476831
-1.2848949 -1.3027598 7.0823989
-1.2566892 -1.2825731 4.9372048
-0.86332309 -0.88450742 2.6194508
-1.0855654 -1.1148603 2.615437
-1.0752982 -1.105842 2.1172123
-1.0328869 -1.0636958 1.6856163
-1.01581 -1.0523363 1.5171157
-0.98557454 -1.0220711 1.2272528
-0.9591679 -0.9950282 0.99072945
-0.94448745 -0.9804731 0.79918516
-0.94597918 -0.98235732 0.63932252
-0.92510247 -0.96100664 0.48202902
-0.92289287 -0.95937383 0.34421217
-0.91130948 -0.94732898 0.21095763
-0.99966311 -1.0327128 1.3612856
-0.97416711 -1.0070677 1.103774
-0.95717579 -0.98984164 0.89475453
-0.9404403 -0.97354406 0.7131955
-0.93526411 -0.96851665 0.55773956
-0.92508191 -0.95829999 0.41196805
-0.91134036 -0.94406152 0.27522817
-0.90875322 -0.94170296 0.14646651
-0.10736101 -0.056692541 12.4138
-1.539969 -1.5323403 13.810589
-1.6835593 -1.6909397 11.495254
-1.4000287 -1.4199233 6.4219203
-0.76557571 -0.78029841 2.6348634
-0.97174335 -0.99312621 2.6136014
-1.0896106 -1.1158818 2.3632588
-1.0599554 -1.0866369 1.8940595
-0.55526698 -0.50114059 12.773083
-1.1150651 -1.0857102 14.471859
-1.2885486 -1.2973748 7.077559
-1.2660071 -1.2830919 4.955976
-0.86640531 -0.8814885 2.6194508
-1.0894505 -1.1110642 2.615437
-1.072827 -1.0956231 2.1052423
-1.0294826 -1.0528122 1.6745907
-1.0120196 -1.0411127 1.506602
-0.98642457 -1.0158322 1.2241144
-0.95972276 -0.98867363 0.987988
-0.94481969 -0.97399074 0.79686636
-0.9429478 -0.9723931 0.63557649
-0.92511243 -0.95432723 0.48061898
-0.92281818 -0.9526183 0.34327957
-0.91114569 -0.94056529 0.21051055
-0.9980492 -1.02387 1.3546345
-0.97485608 -1.0007657 1.1008309
-0.95461023 -0.98031771 0.88968813
-0.94066817 -0.96700221 0.71109742
-0.93534696 -0.9618606 0.55609608
-0.92503333 -0.95157975 0.41079572
-0.91117847 -0.93732387 0.2745375
-0.91203493 -0.93852508 0.14646651
-0.10755825 -0.056317434 12.4138
-1.549178 -1.5307781 13.845164
-1.6930565 -1.6886476 11.519731
-1.3828886 -1.392785 6.3217087
-0.76829475 -0.77762133 2.6348634
-0.97520405 -0.98972815 2.6136014
-1.0875801 -1.1060524 2.3508601
-1.0570033 -1.0760708 1.882547
-0.55679768 -0.49900696 12.768091
-1.1188482 -1.0818112 14.471859
-1.2921805 -1.2919805 7.0727201
-1.2692617 -1.2774408 4.951283
-0.86947697 -0.8784588 2.6194508
-1.0933222 -1.1072545 2.615437
-1.0724134 -1.0875806 2.0972621
-1.028394 -1.0443813 1.6672404
-1.0106581 -1.0324769 1.499593
-0.98452175 -1.0068171 1.2178375
-0.95732206 -0.97933745 0.98250502
-0.94202292 -0.96434927 0.79222876
-0.94309741 -0.96577901 0.63370347
-0.92508703 -0.94765949 0.47920895
-0.92270768 -0.94587499 0.34234694
-0.91094589 -0.93381435 0.21006347
-0.99638581 -1.0150509 1.3479836
-0.9726823 -0.99158591 1.0949446
-0.95198989 -0.97082382 0.8846218
-0.93768585 -0.95722854 0.70690131
-0.93539482 -0.95521593 0.55445254
-0.92494923 -0.94487172 0.40962341
-0.91098064 -0.93059886 0.27384681
-0.91181111 -0.93176514 0.14626497
-0.10775417 -0.055941645 12.4138
-1.5589495 -1.5297141 13.884679
-1.7025582 -1.6863096 11.544207
-1.3740206 -1.3742279 6.2596731
-0.7710045 -0.77493471 2.6348634
-0.97865289 -0.98631799 2.6136014
-1.0854939 -1.0962508 2.3384612
-1.0562447 -1.0678172 1.874872
-0.55853611 -0.4970603 12.768091
-1.1226175 -1.0778991 14.471859
-1.2931143 -1.2839199 7.0533624
-1.2737131 -1.2730025 4.951283
-0.87253809 -0.87541842 2.6194508
-1.0953416 -1.1015822 2.6111712
-1.0698334 -1.0774161 2.0852921
-1.0248718 -1.0335634 1.656215
-1.009249 -1.0238633 1.492584
-0.98256809 -0.99782777 1.2115605
-0.9578014 -0.97300994 0.97976357
-0.94227678 -0.95789725 0.78990996
-0.93996185 -0.95587021 0.62995738
-0.92502654 -0.94100368 0.47779894
-0.92256129 -0.93914413 0.34141433
-0.91071004 -0.92707634 0.20961639
-0.997298 -1.0089113 1.344658
-0.97329706 -0.98530906 1.0920014
-0.95234388 -0.96442753 0.8820886
-0.93783426 -0.95071858 0.70480323
-0.93209213 -0.94522035 0.55116552
-0.92482942 -0.93817568 0.40845108
-0.91074705 -0.9238866 0.27315614
-0.91155142 -0.92501813 0.14606345
-0.10794879 -0.055565171 12.4138
-1.5681754 -1.5280582 13.919253
-1.712064 -1.683926 11.568682
-1.3523296 -1.343128 6.1403737
-0.77232188 -0.77085865 2.6302607
-0.98208988 -0.98289585 2.6136014
-1.0833529 -1.0864773 2.3260624
-1.0531795 -1.0573115 1.8633596
-0.5600512 -0.49491674 12.763099
-1.1259874 -1.0736061 14.466887
-1.2940075 -1.2758685 7.0340047
-1.2683498 -1.2588243 4.9137406
-0.87713093 -0.87390375 2.6239522
-1.0973346 -1.095909 2.6069052
-1.0671958 -1.0672832 2.0733221
-1.0236825 -1.025182 1.6488646
-1.0077918 -1.0152723 1.4855748
-0.98056364 -0.98886418 1.2052836
-0.95530438 -0.96372157 0.97428066
-0.94249725 -0.95145512 0.78759116
-0.93676859 -0.94599515 0.62621135
-0.92493069 -0.93435979 0.4763889
-0.92237926 -0.9324258 0.3404817
-0.91043836 -0.92035127 0.20916931
-0.99554533 -1.0001316 1.3380071
-0.97102922 -0.97617435 1.0861151
-0.95266491 -0.95804071 0.87955546
-0.93794852 -0.94421929 0.7027052
-0.93205851 -0.93861032 0.54952204
-0.92809868 -0.93494171 0.40845108
-0.91047764 -0.91718739 0.27246544
-0.91125566 -0.91828442 0.14586191
-0.10810242 -0.055169862 12.4088
-1.5779675 -1.5268968 13.958767
-1.7215739 -1.6814965 11.593159
-1.3570096 -1.3383993 6.1403737
-0.77639574 -0.76953328 2.6348634
-0.98551488 -0.97946179 2.6136014
-1.0831509 -1.0787177 2.3177965
-1.0523237 -1.0491028 1.8556844
-0.56177533 -0.49295878 12.763099
-1.1297281 -1.0696691 14.466887
-1.2867763 -1.259913 6.9710922
-1.2813401 -1.262868 4.9465904
-0.88172364 -0.87236762 2.6284533
-1.0993015 -1.0902355 2.6026392
-1.0645003 -1.0571816 2.061352
-1.022447 -1.0168214 1.6415143
-1.006287 -1.0067039 1.4785657
-0.97850877 -0.979927 1.1990067
-0.95570844 -0.95742172 0.97153914
-0.93955559 -0.94188708 0.78295356
-0.93679154 -0.93943685 0.62433827
-0.92141324 -0.92433083 0.47356883
-0.91869479 -0.92224014 0.33861646
-0.9101308 -0.91363961 0.20872223
-0.99374354 -0.99137658 1.331356
-0.96870959 -0.96706766 1.0802288
-0.94990271 -0.94861734 0.87448907
-0.93802899 -0.93773079 0.70060712
-0.92865103 -0.92867297 0.54623502
-0.92792016 -0.92825872 0.40727875
-0.91017264 -0.91050142 0.27177477
-0.91092414 -0.91156399 0.14566039
-0.10829434 -0.054792181 12.4088
-1.5860894 -1.5240709 13.983463
-1.7303567 -1.6783121 11.61274
-1.3542078 -1.3263435 6.1069694
-0.77768463 -0.76544809 2.6302607
-0.98892778 -0.97601569 2.6136014
-1.080907 -1.0689942 2.3053975
-1.0514235 -1.0409133 1.8480093
-0.5632748 -0.49080548 12.758107
-1.133455 -1.0657191 14.466887
-1.2848574 -1.2492805 6.9372158
-1.2832738 -1.2559737 4.9372048
-0.88631636 -0.87081009 2.6329546
-1.1012422 -1.0845616 2.5983734
-1.0638931 -1.0492278 2.0533719
-1.0211656 -1.008482 1.634164
-1.0047348 -0.99815845 1.4715567
-0.97916341 -0.97376078 1.1958683
-0.95608014 -0.95113081 0.96879768
-0.93969822 -0.93547636 0.78063476
-0.93349516 -0.9296186 0.62059224
-0.92123556 -0.91772324 0.47215876
-0.91842949 -0.91555959 0.33768386
-0.91331446 -0.91045702 0.20872223
-0.99189281 -0.98264629 1.324705
-0.96920878 -0.96083468 1.0772856
-0.94708633 -0.93922502 0.86942273
-0.93485475 -0.92805594 0.69641101
-0.92853636 -0.92209834 0.54459149
-0.9277063 -0.92158854 0.40610644
-0.90983206 -0.9038288 0.2710841
-0.91055679 -0.90485722 0.14545885
-0.10848494 -0.054413829 12.4088
-1.5947732 -1.5217431 14.0131
-1.7391382 -1.675087 11.63232
-1.3673903 -1.3299335 6.1451454
-0.78035182 -0.76272881 2.6302607
-0.9923287 -0.97255772 2.6136014
-1.0786084 -1.0592995 2.2929986
-1.0504792 -1.0327429 1.8403344
-0.56476599 -0.4886477 12.753116
-1.1371683 -1.0617561 14.466887
-1.2765495 -1.2325658 6.8694644
-1.2814623 -1.2454734 4.9137406
-0.89090902 -0.86923116 2.6374559
-1.1012921 -1.0770642 2.5898414
-1.0610906 -1.0391831 2.0414019
-1.0198387 -1.000164 1.6268137
-1.0031353 -0.98963624 1.4645475
-0.97701746 -0.96486712 1.1895914
-0.9534449 -0.94191045 0.96331471
-0.93980759 -0.92907631 0.77831602
-0.93343818 -0.92309481 0.61871922
-0.92102307 -0.91112834 0.47074872
-0.9146378 -0.90543652 0.33581862
-0.91294783 -0.90375996 0.20827515
-0.98999339 -0.97394109 1.318054
-0.96679592 -0.95177454 1.0713993
-0.9472875 -0.93288857 0.86688954
-0.93485641 -0.92160088 0.69431299
-0.92838705 -0.91553575 0.54294801
-0.92745733 -0.91493106 0.40493411
-0.90945613 -0.89716965 0.2703934
-0.91015375 -0.89816409 0.14525732
-0.10863435 -0.054017071 12.403801
-1.6028956 -1.5188389 14.037795
-1.7486545 -1.6725247 11.656796
-1.378467 -1.3313739 6.1737776
-0.78300941 -0.76000017 2.6302607
-0.99571753 -0.96908796 2.6136014
-1.0782702 -1.0515988 2.2847328
-1.0494906 -1.0245917 1.8326594
-0.56624913 -0.48648551 12.748125
-1.1408675 -1.0577801 14.466887
-1.2817516 -1.2289721 6.8743033
-0.73445934 -0.70893902 2.8301528
-0.89393777 -0.86611605 2.6374559
-1.099432 -1.0677625 2.5770435
-1.0603909 -1.0312713 2.0334218
-1.0184661 -0.99186766 1.6194633
-1.0014886 -0.98113739 1.4575385
-0.97482145 -0.95600027 1.1833144
-0.95374209 -0.93564844 0.96057326
-0.93672258 -0.91958362 0.77367836
-0.93334699 -0.91658264 0.61684614
-0.92077571 -0.90454608 0.46933872
-0.91428971 -0.89879459 0.33488598
-0.90899432 -0.89358538 0.207381
-0.98804533 -0.96526122 1.311403
-0.96722192 -0.94556844 1.0684562
-0.94437408 -0.92354834 0.8618232
-0.93158126 -0.91198218 0.69011688
-0.9282034 -0.90898567 0.54130447
-0.9271732 -0.90828663 0.4037618
-0.90904474 -0.89052421 0.26970273
-0.90971524 -0.89148498 0.14505579
-0.10882224 -0.053637538 12.403801
-1.6115831 -1.5164286 14.06743
-1.7559586 -1.6678128 11.666587
-1.383106 -1.3265541 6.1737776
-0.78565758 -0.75726241 2.6302607
-0.99909425 -0.96560633 2.6136014
-1.0778913 -1.0439132 2.2764668
-1.0484579 -1.0164602 1.8249844
-0.56772393 -0.48431888 12.743133
-1.1445528 -1.0537914 14.466887
-1.2851232 -1.2236238 6.8694644
-0.73692954 -0.70637095 2.8301528
-0.89852446 -0.86449951 2.641957
-1.0993979 -1.0602976 2.5685117
-1.0618168 -1.0254704 2.0294318
-1.0170481 -0.98359311 1.612113
-0.99979472 -0.97266209 1.4505293
-0.97536403 -0.94987619 1.180176
-0.95101196 -0.92647797 0.95509034
-0.93675482 -0.91321599 0.77135956
-0.9332217 -0.91008246 0.61497313
-0.92049378 -0.8979767 0.46792868
-0.91390646 -0.89216626 0.33395338
-0.90854442 -0.88692826 0.20693392
-0.98872864 -0.95920658 1.3080776
-0.9647162 -0.93655556 1.0625699
-0.94449949 -0.917243 0.85929
-0.93150479 -0.90556133 0.68801886
-0.92798531 -0.90244794 0.53966099
-0.92685407 -0.90165544 0.40258947
-0.90859812 -0.88389254 0.26901206
-0.90924114 -0.88481981 0.14485426
-0.10900881 -0.053257354 12.403801
-1.6214092 -1.5150372 14.106945
-1.7669551 -1.6665633 11.700853
-1.3844851 -1.3186299 6.1594615
-0.7882961 -0.75451529 2.6302607
-1.0024587 -0.96211296 2.6136014
-1.0774721 -1.0362432 2.2682009
-1.0473813 -1.0083483 1.8173094
-0.56896996 -0.48196161 12.73315
-1.1482242 -1.0497897 14.466887
-1.2903001 -1.2199939 6.8743033
-0.74314094 -0.70736307 2.8442309
-0.90153664 -0.86135781 2.641957
-1.0993251 -1.0528458 2.5599799
-1.0610402 -1.0175865 2.0214517
-1.0155848 -0.9753406 1.6047627
-0.99805397 -0.96421063 1.4435203
-0.97307765 -0.94105417 1.1738991
-0.95123488 -0.92024535 0.95234889
-0.93675399 -0.90685946 0.76904076
-0.93306249 -0.90359432 0.61310011
-0.92017728 -0.89142042 0.46651864
-0.91348803 -0.88555163 0.33302075
-0.90805918 -0.8802852 0.20648684
-0.98669291 -0.95056862 1.3014265
-0.96215951 -0.92757189 1.0566835
-0.94148952 -0.90795583 0.85422367
-0.92812955 -0.89600003 0.68382275
-0.92433619 -0.89264256 0.53637397
-0.92999578 -0.89841461 0.40258947
-0.90811634 -0.87727493 0.26832137
-0.90873164 -0.87816882 0.14465272
-0.10919405 -0.052876513 12.403801
-1.6244093 -1.5072546 14.087188
-1.7757347 -1.6631693 11.720435
-1.3793186 -1.3045585 6.1165137
-0.79092509 -0.75175899 2.6302607
-1.005811 -0.95860785 2.6136014
-1.0749774 -1.0266455 2.2558022
-1.046261 -1.0002564 1.8096343
-0.5704276 -0.47978702 12.728158
-1.1518818 -1.0457753 14.466887
-1.2817208 -1.2034385 6.8065519
-0.74811411 -0.70713514 2.8536165
-0.90295851 -0.85670739 2.6374559
-1.0973238 -1.0436105 2.5471821
-1.0602214 -1.0097206 2.0134716
-1.0140762 -0.96711022 1.5974122
-0.99884009 -0.95825207 1.4400158
-0.97354925 -0.93495572 1.1707606
-0.94841033 -0.91112578 0.94686598
-0.93672037 -0.90051413 0.76672196
-0.93286943 -0.89711839 0.6112271
-0.91982615 -0.88487726 0.4651086
-0.91303474 -0.87895077 0.33208814
-0.90753865 -0.87365639 0.20603976
-0.98730701 -0.94453758 1.2981011
-0.96247172 -0.92141259 1.0537404
-0.94153965 -0.90168238 0.85169047
-0.92797524 -0.88961405 0.68172467
-0.92403811 -0.88614213 0.53473043
-0.9296186 -0.89179796 0.40141717
-0.91117311 -0.87409961 0.26832137
-0.90818679 -0.8715322 0.1444512
-0.10937796 -0.052495033 12.403801
-1.6290891 -1.5010488 14.082249
-1.7807838 -1.6562672 11.715539
-1.3838639 -1.2997358 6.1165137
-0.79354435 -0.74899364 2.6302607
-1.009151 -0.95509112 2.6136014
-1.0724288 -1.0170779 2.2434032
-1.0450969 -0.9921847 1.8019594
-0.57165527 -0.47742346 12.718174
-1.1555252 -1.0417482 14.466887
-1.2840748 -1.1972429 6.7968726
-0.74680287 -0.70097697 2.8395383
-0.90594351 -0.85355026 2.6374559
-1.0971675 -1.0361924 2.5386503
-1.059361 -1.0018728 2.0054917
-1.0100613 -0.95657152 1.5863868
-0.9970147 -0.94984013 1.4330066
-0.97117329 -0.92617935 1.1644837
-0.94855946 -0.9049235 0.94412446
-0.93344969 -0.89112133 0.76208436
-0.93264258 -0.89065486 0.60935402
-0.91944063 -0.87834746 0.46369857
-0.91254646 -0.87236392 0.33115551
-0.90698302 -0.86704195 0.20559268
-0.98518395 -0.93594241 1.29145
-0.95982301 -0.91247749 1.0478541
-0.93843365 -0.89244902 0.84662414
-0.92778766 -0.88324004 0.67962664
-0.92370594 -0.87965471 0.5330869
-0.93272591 -0.8885476 0.40141717
-0.91063327 -0.86749816 0.2676307
-0.90760678 -0.86491019 0.14424966
-0.1096007 -0.052129958 12.4088
-1.6337454 -1.4948285 14.07731
-1.3600082 -1.2684287 5.9924421
-0.79615408 -0.7462191 2.6302607
-1.0124788 -0.9515627 2.6136014
-1.0718752 -1.0094699 2.2351375
-1.0438893 -0.98413336 1.7942843
-0.57309586 -0.47524109 12.713182
-1.1587573 -1.0373528 14.461916
-1.2651855 -1.1714064 6.6758871
-0.74545771 -0.6948365 2.82546
-0.90732759 -0.84889555 2.6329546
-1.0950706 -1.0270044 2.5258524
-1.0584586 -0.99404341 1.9975116
-1.0084548 -0.94839501 1.5790365
-0.99514264 -0.94145256 1.4259976
-0.96874797 -0.91743106 1.1582067
-0.94867688 -0.89873129 0.941383
-0.93333966 -0.88480991 0.75976557
-0.93238187 -0.88420391 0.607481
-0.91902083 -0.87183124 0.46228856
-0.91202343 -0.8657912 0.3302229
-0.90639234 -0.8604421 0.2051456
-0.98301309 -0.92737359 1.2847991
-0.96006322 -0.90634692 1.0449109
-0.93840909 -0.88620818 0.844091
-0.92756701 -0.87687832 0.67752856
-0.92333996 -0.87318051 0.53144342
-0.93229073 -0.88194609 0.40024486
-0.91005832 -0.86091107 0.26694003
-0.9069916 -0.85830289 0.14404814
-0.10982223 -0.051763963 12.4138
-1.6383783 -1.4885941 14.07237
-1.5514047 -1.4228972 10.144171
-1.343618 -1.2444037 5.9017744
-0.79875398 -0.74343544 2.6302607
-1.0157942 -0.94802266 2.6136014
-1.0692263 -0.99995613 2.2227387
-1.0426383 -0.97610259 1.7866094
-0.5745281 -0.47305453 12.708191
-1.1623714 -1.0333017 14.461916
-1.2415047 -1.1414633 6.530704
-0.74407881 -0.68871397 2.8113818
-0.90869027 -0.84424156 2.6284533
-1.0929229 -1.0178436 2.5130548
-1.0553106 -0.98417753 1.9855415
-1.0068035 -0.9402414 1.5716861
-0.99322438 -0.93308967 1.4189885
-0.969109 -0.91137749 1.1550683
-0.94876254 -0.89254922 0.93864155
-0.93319708 -0.87851024 0.75744677
-0.93546271 -0.88094395 0.607481
-0.92205852 -0.86861795 0.46228856
-0.90789121 -0.85586327 0.32835767
-0.90576667 -0.85385692 0.20469853
-0.98079431 -0.91883129 1.2781481
-0.96027213 -0.90022576 1.0419677
-0.93835223 -0.8799783 0.8415578
-0.92731327 -0.87052894 0.67543054
-0.92293996 -0.86671948 0.52979988
-0.93182099 -0.87535846 0.39907253
-0.90944868 -0.85433859 0.26624933
-0.90634143 -0.85171044 0.1438466
-0.11000225 -0.051380295 12.4138
-1.6435643 -1.4828659 14.07237
-1.5541037 -1.4154167 10.129486
-1.3270768 -1.2205089 5.8111067
-0.80134416 -0.74064273 2.6302607
-1.0190972 -0.94447106 2.6136014
-1.0665241 -0.99047315 2.2103398
-1.0413439 -0.96809262 1.7789344
-0.57595217 -0.47086382 12.703199
-1.1659712 -1.029238 14.461916
-1.2473383 -1.1388177 6.5403833
-0.74266624 -0.6826095 2.7973032
-0.90843147 -0.83811241 2.6194508
-1.0888098 -1.0069395 2.4959908
-1.0543178 -0.97639316 1.9775614
-1.0051079 -0.93211097 1.5643358
-0.99386764 -0.92718434 1.415484
-0.96659476 -0.90267605 1.1487914
-0.94576126 -0.88352323 0.93315864
-0.9330219 -0.87222236 0.75512797
-0.93514603 -0.87450689 0.60560799
-0.92158169 -0.86211693 0.46087852
-0.90728706 -0.84933186 0.32742503
-0.90874165 -0.85069001 0.20469853
-0.97852802 -0.91031587 1.271497
-0.95749158 -0.8913601 1.0360813
-0.93826342 -0.87375975 0.83902454
-0.92702645 -0.86419195 0.67333251
-0.92250615 -0.86027205 0.5281564
-0.93131655 -0.8687849 0.39790022
-0.90880418 -0.84778082 0.26555866
-0.90565634 -0.84513301 0.14364508
-0.11018093 -0.050996002 12.4138
-1.6487306 -1.4771198 14.07237
-1.5575243 -1.4086173 10.119696
-1.3269199 -1.2118429 5.7920184
-0.80392468 -0.73784095 2.6302607
-1.0223877 -0.94090801 2.6136014
-1.0658375 -0.98292893 2.2020738
-1.0400064 -0.96010357 1.7712594
-0.5773679 -0.46866882 12.698208
-1.1691558 -1.0248104 14.456944
-1.2513061 -1.1344566 6.5403833
-0.74249506 -0.67768663 2.7879179
-0.90974629 -0.83346587 2.6149497
-1.0865552 -0.99784106 2.4831932
-1.0510654 -0.9665882 1.9655914
-1.0033677 -0.92400396 1.5569855
-0.99186563 -0.9188624 1.4084748
-0.96688581 -0.89664984 1.1456529
-0.94577396 -0.87737268 0.93041718
-0.93281424 -0.86594635 0.75280917
-0.93479586 -0.86808264 0.60373497
-0.92458546 -0.85889482 0.46087852
-0.90664834 -0.84281522 0.32649243
-0.90805805 -0.84412217 0.20425145
-0.97621429 -0.90182757 1.2648461
-0.95762902 -0.88526869 1.0331382
-0.93814272 -0.86755246 0.83649141
-0.92670691 -0.85786778 0.67123443
-0.92203873 -0.85383832 0.52651286
-0.93077773 -0.86222547 0.39672789
-0.90812504 -0.84123802 0.26486799
-0.90493637 -0.83857077 0.14344354
-0.11031787 -0.050594609 12.4088
-1.653296 -1.4708393 14.06743
-1.5631895 -1.4038523 10.124591
-1.3189782 -1.1961744 5.7395267
-0.80649525 -0.73503023 2.6302607
-1.023898 -0.93571794 2.6092124
-1.0651114 -0.9754017 2.1938081
-1.038626 -0.95213574 1.7635844
-0.57877529 -0.46646968 12.693216
-1.1727259 -1.0207231 14.456944
-1.2571269 -1.1317637 6.5500622
-0.74229854 -0.6727733 2.7785323
-0.91265011 -0.83028519 2.6149497
-1.0842502 -0.98877025 2.4703953
-1.0477576 -0.95681787 1.9536213
-1.0015831 -0.91592038 1.5496351
-0.98981762 -0.91056579 1.4014658
-0.96714652 -0.89063275 1.1425145
-0.94267982 -0.8684001 0.92493427
-0.93257415 -0.8596825 0.75049037
-0.93441218 -0.86167157 0.60186189
-0.92757791 -0.85566217 0.46087852
-0.90597534 -0.83631343 0.32555979
-0.90733981 -0.83756948 0.20380437
-0.97385335 -0.89336669 1.258195
-0.95475793 -0.87645394 1.0272518
-0.93799007 -0.86135679 0.83395821
-0.92635447 -0.85155624 0.6691364
-0.92153752 -0.84741825 0.52486938
-0.92662722 -0.85238999 0.39438328
-0.90741134 -0.83471042 0.26417729
-0.9041816 -0.83202386 0.14324202
-0.11045334 -0.050192881 12.403801
-1.6578377 -1.464545 14.062491
-1.5665603 -1.3970319 10.114799
-1.3198178 -1.1885666 5.7252111
-0.8090561 -0.73221064 2.6302607
-1.027158 -0.93213826 2.6092124
-1.0622636 -0.96599835 2.1814091
-1.0372026 -0.94418931 1.7559093
-0.58017445 -0.46426651 12.688225
-1.1762818 -1.0166233 14.456944
-1.2629442 -1.1290439 6.559741
-0.74207681 -0.66786957 2.7691467
-0.9139272 -0.82563514 2.6104486
-1.0818954 -0.97972804 2.4575975
-1.0443945 -0.94708252 1.9416513
-0.99975431 -0.90786058 1.5422847
-0.98772383 -0.90229481 1.3944566
-0.96450454 -0.88199818 1.1362376
-0.94262004 -0.86228198 0.92219275
-0.92903429 -0.85044003 0.74585277
-0.93399525 -0.85527384 0.59998888
-0.9305591 -0.85241908 0.46087852
-0.90526801 -0.82982659 0.32462719
-0.90658695 -0.83103204 0.20335729
-0.97420555 -0.88744754 1.2548696
-0.95482427 -0.87039292 1.0243087
-0.93780571 -0.85517281 0.83142501
-0.92596924 -0.84525776 0.66703832
-0.92100286 -0.84101212 0.52322584
-0.92241937 -0.84259397 0.39203864
-0.90666318 -0.82819808 0.26348662
-0.90339226 -0.82549256 0.14304048
-0.11062787 -0.049807023 12.403801
-1.6623557 -1.4582368 14.057552
-1.5706649 -1.3908801 10.109904
-0.81160706 -0.72938204 2.6302607
-1.0304055 -0.92854714 2.6092124
-1.0614519 -0.95851278 2.1731431
-1.0357364 -0.9362644 1.7482344
-0.58179146 -0.46223846 12.688225
-1.1798232 -1.012511 14.456944
-1.2687578 -1.1262972 6.5694199
-0.74182987 -0.66297561 2.7597613
-0.9168036 -0.82243991 2.6104486
-1.08143 -0.972458 2.4490657
-1.0409763 -0.93738228 1.9296812
-0.99788171 -0.89982486 1.5349344
-0.98558444 -0.89404947 1.3874475
-0.96469581 -0.87600946 1.1330991
-0.94252908 -0.85617495 0.9194513
-0.92871916 -0.84421235 0.74353397
-0.93011504 -0.84577066 0.59624279
-0.92998028 -0.84593773 0.45946848
-0.90452647 -0.82335496 0.32369456
-0.90579939 -0.82451016 0.2029102
-0.97175926 -0.87903208 1.2482185
-0.95186329 -0.86162972 1.0184224
-0.93439418 -0.84610724 0.82635868
-0.92555141 -0.83897233 0.6649403
-0.92043465 -0.83462012 0.52158237
-0.91815454 -0.8328377 0.38969401
-0.90588069 -0.82170111 0.26279593
-0.90256858 -0.81897706 0.14283895
-0.11076049 -0.049404502 12.398801
-1.66685 -1.451915 14.052613
-1.5747458 -1.3847167 10.105009
-1.2510624 -1.1109413 5.3959441
-0.81414813 -0.7265445 2.6302607
-1.0336405 -0.92494464 2.6092124
-1.0585058 -0.94916612 2.1607444
-1.0318422 -0.92622036 1.7367218
-0.58340144 -0.46020484 12.688225
-1.1833504 -1.0083865 14.456944
-1.2726816 -1.1218617 6.5694199
-0.74155784 -0.6580916 2.7503757
-0.91966891 -0.81923473 2.6104486
-1.0789815 -0.96346623 2.4362679
-1.0397493 -0.92972606 1.9217011
-0.99596524 -0.89181334 1.5275841
-0.98604941 -0.88821691 1.383943
-0.96196634 -0.86742377 1.1268222
-0.94240701 -0.850079 0.91670984
-0.92508364 -0.83502901 0.73889637
-0.9296208 -0.83941191 0.59436977
-0.92580777 -0.83625549 0.45664841
-0.90375078 -0.81689852 0.32276195
-0.90497756 -0.81800389 0.20246312
-0.97204399 -0.87313968 1.2448931
-0.951859 -0.85559982 1.0154792
-0.93413639 -0.83995813 0.82382548
-0.92510104 -0.83270013 0.66284221
-0.92334247 -0.83140206 0.52158237
-0.91744459 -0.82637471 0.3885217
-0.90506381 -0.81521964 0.26210526
-0.90171027 -0.81247723 0.14263742
-0.11089164 -0.04900166 12.393802
-1.6713201 -1.4455795 14.047674
-1.5788027 -1.3785418 10.100114
-1.247095 -1.0996577 5.3625402
-0.8166793 -0.7236982 2.6302607
-1.0368629 -0.92133093 2.6092124
-1.0576092 -0.94172299 2.1524785
-1.0302836 -0.9183476 1.7290468
-0.58477676 -0.45798787 12.683232
-1.1868632 -1.0042497 14.456944
-1.2765899 -1.1174123 6.5694199
-0.73996592 -0.65207672 2.7362974
-0.92252296 -0.81601942 2.6104486
-1.0784351 -0.95623374 2.427736
-1.0362283 -0.92008919 1.9097309
-0.99400502 -0.88382614 1.5202339
-0.98382759 -0.8800146 1.3769339
-0.96208853 -0.86146426 1.1236838
-0.94225383 -0.84399444 0.91396838
-0.92469412 -0.82883817 0.73657757
-0.93254519 -0.83616185 0.59436977
-0.92515016 -0.82981575 0.4552384
-0.90294111 -0.81045771 0.32182932
-0.90782738 -0.81483996 0.20246312
-0.96951282 -0.86477065 1.238242
-0.95182419 -0.84958041 1.012536
-0.93384713 -0.83382136 0.82129234
-0.92123437 -0.82341695 0.65864611
-0.9227187 -0.82502657 0.51993883
-0.9167006 -0.81992686 0.38734937
-0.90421289 -0.80875415 0.26141456
-0.90081769 -0.8059935 0.14243589
-0.11106201 -0.048614278 12.393802
-1.676356 -1.4397368 14.047674
-1.5828358 -1.3723556 10.09522
-1.2262169 -1.0736666 5.2575564
-0.81920052 -0.72084308 2.6302607
-1.0400726 -0.91770601 2.6092124
-1.0566735 -0.93429774 2.1442127
-1.0286825 -0.91049713 1.7213718
-0.58660001 -0.45612073 12.688225
-1.1903613 -1.0001007 14.456944
-1.2785851 -1.1113005 6.559741
-0.73964 -0.64721739 2.7269118
-0.92536575 -0.81279427 2.6104486
-1.0758939 -0.94729334 2.4149382
-1.0349132 -0.91248113 1.9017509
-0.99454272 -0.87810737 1.5165586
-0.984227 -0.87420684 1.3734293
-0.96218085 -0.85551435 1.1205453
-0.93894523 -0.83514237 0.90848547
-0.9242726 -0.82266027 0.73425877
-0.93199587 -0.82981879 0.59249669
-0.92087662 -0.82020026 0.45241833
-0.9020974 -0.80403239 0.32089669
-0.90694851 -0.80835265 0.20201604
-0.96973044 -0.85890567 1.2349164
-0.9517591 -0.84357184 1.0095929
-0.9335264 -0.82769668 0.81875914
-0.92070842 -0.81718349 0.65654802
-0.92206174 -0.8186655 0.51829535
-0.91592294 -0.81349421 0.38617706
-0.90332794 -0.80230451 0.26072389
-0.89989084 -0.79952592 0.14223436
-0.11127177 -0.048241932 12.398801
-1.6807802 -1.4333724 14.042735
-1.5876166 -1.366822 10.09522
-1.2209448 -1.0615454 5.2193809
-0.82171166 -0.71797913 2.6302607
-1.0432696 -0.91406989 2.6092124
-1.0578135 -0.928747 2.1400795
-1.0246317 -0.90055329 1.7098594
-0.58818859 -0.45407036 12.688225
-1.1938452 -0.99593943 14.456944
-1.2672298 -1.0936921 6.4823103
-0.73798633 -0.64123654 2.7128336
-0.92819732 -0.80955917 2.6104486
-1.075267 -0.94009906 2.4064064
-1.0312905 -0.90290868 1.889781
-0.99250329 -0.87016064 1.5092083
-0.98192322 -0.86604822 1.3664203
-0.95932555 -0.84699839 1.1142684
-0.93872064 -0.82909185 0.90574402
-0.92713857 -0.81942892 0.73425877
-0.93141371 -0.8234899 0.59062368
-0.92014074 -0.81380278 0.45100829
-0.90122008 -0.79762298 0.31996405
-0.90603548 -0.80188137 0.20156896
-0.96711522 -0.85058391 1.2282655
-0.95166361 -0.83757406 1.0066497
-0.93317431 -0.8215844 0.81622595
-0.9201504 -0.81096387 0.65445
-0.92137164 -0.81231904 0.51665181
-0.91875696 -0.81029207 0.38617706
-0.90240902 -0.7958709 0.26003322
-0.90267617 -0.7963798 0.14223436
-0.11143949 -0.047853228 12.398801
-1.6857733 -1.4274966 14.042735
-1.5923779 -1.3612717 10.09522
-1.2201229 -1.0533755 5.2002926
-0.82421291 -0.71510643 2.6302607
-1.046454 -0.91042262 2.6092124
-1.0568067 -0.92135054 2.1318138
-1.0229391 -0.89275628 1.7021843
-0.5895406 -0.45183909 12.683232
-1.1973143 -0.9917661 14.456944
-1.2634037 -1.0827191 6.4435949
-0.73760682 -0.63640237 2.7034481
-0.93101752 -0.80631423 2.6104486
-1.0746031 -0.93292063 2.3978746
-1.0298877 -0.89534956 1.8818009
-0.99042064 -0.86223906 1.501858
-0.98225749 -0.86026585 1.3629158
-0.95934945 -0.8410787 1.11113
-0.93846524 -0.82305306 0.9030025
-0.92666382 -0.81326562 0.73193997
-0.93079859 -0.81717515 0.58875066
-0.91937143 -0.80742049 0.44959825
-0.90030897 -0.79122955 0.31903145
-0.90508837 -0.79542643 0.20112188
-0.96726608 -0.84474689 1.2249401
-0.94849432 -0.82892752 1.0007634
-0.93279105 -0.81548494 0.81369281
-0.91956019 -0.80475813 0.65235192
-0.92064857 -0.80598748 0.51500833
-0.91792315 -0.80387777 0.38500473
-0.90145618 -0.78945351 0.25934252
-0.90169275 -0.78993195 0.14203283
-0.1116467 -0.047479283 12.403801
-1.6907459 -1.4216034 14.042735
-1.5971199 -1.355705 10.09522
-1.2328594 -1.0568814 5.2384686
-0.82670408 -0.71222508 2.6302607
-1.0496256 -0.90676427 2.6092124
-1.0578887 -0.9158144 2.1276808
-1.0187821 -0.88288295 1.6906718
-0.59111428 -0.44977844 12.683232
-1.2007688 -0.9875806 14.456944
-1.2576016 -1.0701574 6.3952003
-0.73589182 -0.63045603 2.6893697
-0.93382645 -0.80305946 2.6104486
-1.0719266 -0.92405558 2.3850765
-1.0284448 -0.88781124 1.8738209
-0.99085957 -0.85655957 1.4981829
-0.98256332 -0.85449171 1.3594111
-0.95640796 -0.83261359 1.104853
-0.93817914 -0.81702614 0.90026098
-0.92615741 -0.80711579 0.72962117
-0.92665637 -0.80782837 0.58500457
-0.92218429 -0.80420631 0.44959825
-0.90306538 -0.78808212 0.31903145
-0.90410727 -0.78898787 0.2006748
-0.96738797 -0.83891928 1.2216145
-0.94832927 -0.82296252 0.99782026
-0.9323765 -0.80939794 0.81115961
-0.91893798 -0.7985664 0.65025389
-0.91632861 -0.79657286 0.51172131
-0.91705585 -0.79747921 0.38383242
-0.9004696 -0.7830525 0.25865185
-0.90067524 -0.78350067 0.14183129
-0.11181174 -0.047089275 12.403801
-1.6956979 -1.415693 14.042735
-1.6026211 -1.3507779 10.100114
-1.2308573 -1.0477341 5.2146087
-0.82918519 -0.70933497 2.6302607
-1.0527843 -0.90309483 2.6092124
-1.0568111 -0.90844756 2.119415
-1.0169984 -0.87514025 1.6829967
-0.59268069 -0.44771236 12.683232
-1.2042089 -0.98338324 14.456944
-1.2507672 -1.0568384 6.3419671
-0.73545891 -0.62564749 2.6799841
-0.93662393 -0.79979491 2.6104486
-1.0711828 -0.91691661 2.3765447
-1.0269617 -0.88029402 1.8658408
-0.98869854 -0.8486796 1.4908326
-0.98014152 -0.84639531 1.3524021
-0.95636386 -0.82672459 1.1017146
-0.93469942 -0.8082763 0.89477807
-0.9256193 -0.80097932 0.72730237
-0.92596543 -0.8015548 0.58313155
-0.92135936 -0.7978422 0.44818825
-0.90209842 -0.78170806 0.31809881
-0.90309227 -0.78256589 0.20022772
-0.96748108 -0.83310109 1.218289
-0.94813406 -0.81700873 0.9948771
-0.93193096 -0.80332398 0.80862641
-0.9182837 -0.79238892 0.64815581
-0.91552901 -0.79028386 0.51007777
-0.91615498 -0.79109657 0.38266009
-0.90319741 -0.77990454 0.25865185
-0.89962399 -0.7770862 0.14162977
-0.11201639 -0.046713755 12.4088
-1.7006294 -1.4097654 14.042735
-1.6088881 -1.3464823 10.109904
-1.2481885 -1.054993 5.271872
-0.83165616 -0.70643622 2.6302607
-1.0559304 -0.89941442 2.6092124
-1.0556948 -0.90109938 2.1111491
-1.0127364 -0.86533874 1.6714844
-0.59400868 -0.44546789 12.678241
-1.2076342 -0.97917366 14.456944
-1.2486703 -1.0476192 6.3129301
-0.73368305 -0.61973631 2.665906
-0.93941003 -0.79652059 2.6104486
-1.0704023 -0.90979397 2.3680129
-1.0277334 -0.87475085 1.8618507
-0.98649454 -0.84082514 1.4834822
-0.97767532 -0.83832616 1.3453929
-0.95629019 -0.82084614 1.0985761
-0.93434262 -0.80228472 0.89203662
-0.92840964 -0.79774344 0.72730237
-0.92524207 -0.79529577 0.58125854
-0.92050147 -0.79149371 0.44677821
-0.90482157 -0.77855438 0.31809881
-0.90204352 -0.77616066 0.19978066
-0.96470737 -0.82486606 1.211638
-0.94790882 -0.81106639 0.99193394
-0.93145436 -0.79726297 0.80609328
-0.91759771 -0.78622574 0.64605778
-0.91469657 -0.78401017 0.5084343
-0.91153097 -0.78156614 0.38031548
-0.90591431 -0.77674699 0.25865185
-0.89853883 -0.77068865 0.14142823
-0.11217877 -0.046322457 12.4088
-1.70614 -1.404314 14.047674
-1.6151448 -1.3421594 10.119696
-1.2678722 -1.0640626 5.3386803
-0.834117 -0.70352894 2.6302607
-1.0590636 -0.8957231 2.6092124
-1.0545402 -0.8937701 2.1028829
-1.0108624 -0.85765129 1.6638092
-0.59532821 -0.44321957 12.673249
-1.2114601 -0.97528654 14.461916
-1.2523196 -1.0432541 6.3129301
-0.73055249 -0.61273634 2.647135
-0.94218475 -0.79323661 2.6104486
-1.0695852 -0.90268809 2.3594811
-1.0261776 -0.86726826 1.8538706
-0.98683566 -0.83518648 1.479807
-0.9778803 -0.8325966 1.3418884
-0.9532249 -0.81245351 1.0922991
-0.93395555 -0.79630554 0.88929516
-0.92781866 -0.7916227 0.72498357
-0.92448628 -0.78905165 0.57938552
-0.92325872 -0.78827578 0.44677821
-0.903799 -0.77220029 0.31716621
-0.90474737 -0.77300715 0.19978066
-0.96473438 -0.81907719 1.2083125
-0.94765377 -0.80513561 0.98899078
-0.93094683 -0.79121506 0.80356008
-0.91687977 -0.78007698 0.6439597
-0.91383159 -0.77775198 0.50679076
-0.9105525 -0.77522862 0.37914312
-0.90484953 -0.77036989 0.25796115
-0.89742017 -0.76430815 0.14122671
-0.11238084 -0.045945369 12.4138
-1.7110316 -1.39835 14.047674
-1.6213911 -1.3378093 10.129486
-1.2646979 -1.0538974 5.3100481
-0.83656776 -0.70061302 2.6302607
-1.0621836 -0.89202082 2.6092124
-1.0511941 -0.8846482 2.0904841
-1.0089471 -0.84998745 1.6561341
-0.59687173 -0.44113883 12.673249
-1.2148572 -0.97105181 14.461916
-1.2530478 -1.0364732 6.2984118
-0.73003453 -0.60797417 2.6377494
-0.9432776 -0.78854686 2.6059475
-1.0707307 -0.89727396 2.3552151
-1.0268905 -0.86174411 1.8498807
-0.98455411 -0.82737482 1.4724567
-0.97805715 -0.82687575 1.3383839
-0.95308387 -0.80660677 1.0891607
-0.93353808 -0.79033881 0.8865537
-0.92719632 -0.78551579 0.72266477
-0.92369825 -0.78282255 0.57751244
-0.91868633 -0.778844 0.44395813
-0.90648901 -0.76904082 0.31716621
-0.90364265 -0.76662272 0.19933358
-0.96473289 -0.81329811 1.204987
-0.94736904 -0.79921657 0.98604763
-0.93040854 -0.78518051 0.80102688
-0.91613007 -0.77394295 0.64186168
-0.91654086 -0.77455741 0.50679076
-0.90582901 -0.76576948 0.37679848
-0.90753311 -0.76720667 0.25796115
-0.90008259 -0.76117092 0.14122671
-0.11254054 -0.045552809 12.4138
-1.7165056 -1.3928584 14.052613
-1.6276264 -1.3334317 10.139277
-1.2729696 -1.0532824 5.3291359
-0.837506 -0.69643962 2.6256583
-1.0652909 -0.88830769 2.6092124
-1.0499569 -0.87736481 2.0822184
-1.0069908 -0.8423475 1.6484592
-0.59817499 -0.43888223 12.668258
-1.2182393 -0.96680522 14.461916
-1.2537438 -1.0296999 6.2838941
-0.72683221 -0.60102421 2.6189783
-0.94602442 -0.78524941 2.6059475
-1.0698464 -0.89019489 2.3466833
-1.0252622 -0.85429668 1.8419007
-0.984833 -0.82176113 1.4687816
-0.97547454 -0.81887096 1.3313749
-0.95291376 -0.800771 1.0860223
-0.93309039 -0.78438479 0.88381225
-0.92993265 -0.78227448 0.72266477
-0.92287803 -0.77660871 0.57563943
-0.91772962 -0.77254325 0.4425481
-0.90541095 -0.76270711 0.31623358
-0.90631312 -0.76346374 0.19933358
-0.96183962 -0.80513257 1.198336
-0.94705439 -0.79330933 0.98310447
-0.92983943 -0.77915937 0.79849374
-0.91534883 -0.76782364 0.63976365
-0.91562164 -0.768318 0.50514728
-0.90849656 -0.76260287 0.37679848
-0.90641266 -0.76085031 0.25727049
-0.89890808 -0.75481176 0.14102517
-0.11274001 -0.045174174 12.4188
-1.7213572 -1.3868581 14.052613
-1.6314809 -1.3270997 10.134381
-1.2800988 -1.0516748 5.3434525
-0.83993191 -0.69351196 2.6256583
-1.0683852 -0.88458365 2.6092124
-1.0465158 -0.86830419 2.0698195
-1.0049936 -0.83473164 1.6407841
-0.59970331 -0.43679151 12.668258
-1.2220255 -0.96287668 14.466887
-1.2622015 -1.0292886 6.3080912
-0.72759181 -0.59738851 2.6142855
-0.94875968 -0.78194243 2.6059475
-1.068926 -0.88313299 2.3381512
-1.0259162 -0.8487919 1.8379105
-0.98247421 -0.81399292 1.4614313
-0.97558743 -0.8131777 1.3278702
-0.95271444 -0.79494619 1.0828838
-0.93582267 -0.78112292 0.88381225
-0.92925769 -0.7761839 0.72034597
-0.92558336 -0.77338248 0.57563943
-0.91674 -0.7662586 0.44113809
-0.90806776 -0.75954199 0.31623358
-0.90515268 -0.75710034 0.1988865
-0.96177274 -0.79938376 1.1950105
-0.94671005 -0.78741401 0.98016131
-0.92923975 -0.77315181 0.79596055
-0.91453606 -0.76171923 0.63766557
-0.91829807 -0.76511723 0.50514728
-0.90741915 -0.75631499 0.37562618
-0.90525895 -0.75451118 0.25657982
-0.89770025 -0.74847007 0.14082365
-0.11289702 -0.044780366 12.4188
-1.7286148 -1.3827821 14.07237
-1.630558 -1.316919 10.100114
-1.2918594 -1.053804 5.3768559
-0.84083658 -0.68933731 2.6210558
-1.0714664 -0.88084894 2.6092124
-1.0451963 -0.86106747 2.0615535
-1.0029554 -0.82714009 1.6331092
-0.60099024 -0.43452668 12.663266
-1.2253791 -0.95860511 14.466887
-1.2716486 -1.0296216 6.3371272
-0.7283349 -0.59375483 2.6095927
-0.95148337 -0.77862585 2.6059475
-1.0679692 -0.87608832 2.3296194
-1.0242159 -0.84138042 1.8299305
-0.98269135 -0.80840468 1.457756
-0.97292513 -0.80521989 1.3208612
-0.95248622 -0.78913265 1.0797453
-0.93532407 -0.77518338 0.88107073
-0.92855161 -0.77010763 0.71802717
-0.92470938 -0.76718688 0.57376641
-0.91940916 -0.76305389 0.44113809
-0.90693456 -0.75322914 0.31530097
-0.90395892 -0.75075448 0.19843942
-0.96167737 -0.79364514 1.1916851
-0.94321954 -0.77895707 0.97427499
-0.92860943 -0.76715797 0.79342741
-0.91369194 -0.7556299 0.63556755
-0.91732466 -0.75889707 0.5035038
-0.91005373 -0.75314289 0.37562618
-0.90407211 -0.74818945 0.25588912
-0.90030742 -0.74533194 0.14082365
-0.11305264 -0.044386007 12.4188
-1.7370822 -1.3796387 14.102005
-1.631173 -1.3080348 10.075638
-1.2990102 -1.0521064 5.3911719
-0.84323776 -0.68639803 2.6210558
-1.0726792 -0.87558913 2.6048231
-1.0438392 -0.85385066 2.0532877
-1.0033566 -0.82160354 1.6292717
-0.60250336 -0.43242621 12.663266
-1.2287178 -0.95432192 14.466887
-1.2801336 -1.0291138 6.3613248
-0.73040307 -0.59120882 2.6095927
-0.9541955 -0.77529979 2.6059475
-1.0669763 -0.86906129 2.3210876
-1.0224764 -0.83399117 1.8219506
-0.9802559 -0.80068052 1.4504057
-0.97297466 -0.79955477 1.3173567
-0.95222902 -0.78333044 1.0766069
-0.93479556 -0.76925689 0.87832928
-0.92781454 -0.76404577 0.71570832
-0.92380351 -0.76100683 0.57189339
-0.91836512 -0.75678939 0.43972805
-0.90576857 -0.74693364 0.31436834
-0.9027319 -0.74442619 0.19799234
-0.96155381 -0.78791708 1.1883595
-0.94280732 -0.77309704 0.97133183
-0.93128169 -0.76391184 0.79342741
-0.91281652 -0.74955589 0.63346946
-0.91631913 -0.75269312 0.50186026
-0.90892178 -0.74687582 0.37445387
-0.89902616 -0.73874122 0.25450778
-0.89904416 -0.7390123 0.14062211
-0.11320689 -0.043991107 12.4188
-1.74982 -1.3798202 14.166216
-1.6325426 -1.2997965 10.056058
-1.3026748 -1.0475655 5.3911719
-0.8456285 -0.6834504 2.6210558
-1.075729 -0.87183934 2.6048231
-1.0424445 -0.84665388 2.0450218
-1.0012443 -0.81405234 1.6215967
-0.60377377 -0.43015325 12.658275
-1.2324637 -0.95035243 14.471859
-1.2925606 -1.0316952 6.4048796
-0.73111713 -0.58757484 2.6048999
-0.95689595 -0.77196437 2.6059475
-1.0659475 -0.86205184 2.3125558
-1.020698 -0.82662439 1.8139704
-0.98041159 -0.79511857 1.4467305
-0.9702332 -0.79164469 1.3103476
-0.95194298 -0.77753955 1.0734684
-0.93423688 -0.76334351 0.87558782
-0.92704648 -0.75799847 0.71338952
-0.92286575 -0.75484246 0.57002032
-0.9210012 -0.75357902 0.43972805
-0.90076882 -0.73754334 0.3125031
-0.90147179 -0.73811561 0.19754526
-0.95850557 -0.77984315 1.1817086
-0.94236559 -0.76724941 0.96838868
-0.93060005 -0.75793427 0.79089421
-0.91542739 -0.74636501 0.63346946
-0.91162211 -0.74352086 0.49857324
-0.91152334 -0.7436986 0.37445387
-0.8977623 -0.73246807 0.25381708
-0.89774793 -0.73271078 0.14042059
-0.11340111 -0.043609589 12.4238
-1.7552377 -1.3741827 14.171156
-1.6370698 -1.2940899 10.056058
-1.2888248 -1.029043 5.3195925
-0.84800905 -0.68049443 2.6210558
-1.0768998 -0.8665778 2.6004343
-1.0410123 -0.83947718 2.0367558
-0.99909151 -0.80652589 1.6139216
-0.60503566 -0.42787665 12.653283
-1.2357736 -0.94604456 14.471859
-1.2961539 -1.0271771 6.4048796
-0.73316365 -0.58501917 2.6048999
-0.95958483 -0.76861936 2.6059475
-1.0648828 -0.8550601 2.3040237
-1.0165322 -0.81739205 1.8020003
-0.97789991 -0.78743923 1.4393802
-0.97021949 -0.7860083 1.306843
-0.95162815 -0.77176034 1.07033
-0.93364853 -0.75744349 0.87284636
-0.92624754 -0.75196588 0.71107078
-0.92189634 -0.74869394 0.5681473
-0.91990274 -0.74733478 0.43831801
-0.89952624 -0.73129588 0.3115705
-0.89631456 -0.72868156 0.1966511
-0.95831734 -0.77414638 1.1783831
-0.94189459 -0.76141429 0.96544552
-0.92988801 -0.75197065 0.78836101
-0.91449952 -0.74030942 0.63137144
-0.91054219 -0.73736244 0.49692973
-0.91033685 -0.73745263 0.37328154
-0.89261782 -0.72309566 0.25243574
-0.90030015 -0.72957253 0.14042059
-0.11355265 -0.043213479 12.4238
-1.7679998 -1.3742453 14.235366
-1.6255561 -1.2757965 9.9581528
-1.2830504 -1.0171204 5.2814164
-0.85037929 -0.67753017 2.6210558
-1.0761758 -0.85982376 2.5916562
-1.0395428 -0.83232093 2.0284901
-0.9993996 -0.80102909 1.6100842
-0.60628903 -0.42559654 12.648292
-1.2390684 -0.94172519 14.471859
-1.3007194 -1.0234236 6.4097185
-0.73520136 -0.58245641 2.6048999
-0.96055794 -0.76391023 2.6014462
-1.061743 -0.84646082 2.2912261
-1.0146693 -0.81007892 1.7940203
-0.97799468 -0.78190404 1.4357051
-0.9673993 -0.77814651 1.2998339
-0.95128453 -0.76599276 1.0671915
-0.93303043 -0.75155687 0.87010491
-0.92541778 -0.74594814 0.70875198
-0.92089528 -0.7425614 0.56627429
-0.91877186 -0.7411074 0.43690795
-0.89825106 -0.72506607 0.31063786
-0.89497757 -0.72242045 0.19620402
-0.95810103 -0.76846045 1.1750575
-0.94139439 -0.75559181 0.96250236
-0.92914575 -0.74602127 0.78582788
-0.91354048 -0.73426944 0.62927336
-0.90943027 -0.7312206 0.49528623
-0.90911794 -0.73122418 0.37210923
-0.89127767 -0.71687174 0.25174505
-0.89894885 -0.72329366 0.14021905
-0.1137028 -0.04281684 12.4238
-1.7838595 -1.3766086 14.324272
-1.6203605 -1.2626053 9.8994093
-1.2725164 -1.0015583 5.2241526
-0.85120684 -0.67334586 2.6164534
-1.0772941 -0.85457361 2.5872669
-1.038036 -0.82518512 2.0202241
-0.99717343 -0.79354417 1.6024091
-0.60729671 -0.42314816 12.638308
-1.2427738 -0.93771523 14.476831
-1.3013121 -1.0165559 6.3952003
-0.73723 -0.57988656 2.6048999
-0.96321869 -0.76055259 2.6014462
-1.0606012 -0.83951235 2.2826943
-1.0127679 -0.80278879 1.7860402
-0.97806269 -0.7763778 1.4320298
-0.96732301 -0.77253962 1.2963293
-0.95091236 -0.7602371 1.0640531
-0.93238246 -0.74568385 0.86736345
-0.92455739 -0.73994541 0.70643318
-0.91986263 -0.73644507 0.56440127
-0.91760904 -0.73489708 0.43549791
-0.89311028 -0.71578217 0.30877262
-0.89360785 -0.71617764 0.19575694
-0.95493591 -0.76045972 1.1684066
-0.94086498 -0.74978209 0.95955914
-0.92837334 -0.74008644 0.78329468
-0.91609806 -0.73107612 0.62927336
-0.90828663 -0.72509551 0.49364269
-0.90786672 -0.7250132 0.3709369
-0.88990498 -0.71066612 0.25105438
-0.90146822 -0.72015131 0.14021905
-0.11381006 -0.042406209 12.4188
-1.7972898 -1.3769879 14.393421
-1.5836821 -1.2251716 9.6497536
-1.2842386 -1.0035431 5.2575564
-0.8535521 -0.67037046 2.6164534
-1.0765073 -0.84784448 2.5784888
-1.0364921 -0.81807011 2.0119581
-0.99742234 -0.78807157 1.5985717
-0.60853249 -0.42086187 12.633316
-1.246466 -0.93369085 14.481802
-1.2998857 -1.0081561 6.3710032
-0.73924971 -0.57730961 2.6048999
-0.96586764 -0.7571857 2.6014462
-1.0594238 -0.83258224 2.2741623
-1.010828 -0.79552186 1.7780602
-0.9754414 -0.76876223 1.4246795
-0.96442485 -0.764727 1.2893202
-0.95051157 -0.7544933 1.0609146
-0.93170512 -0.73982453 0.864622
-0.92366636 -0.73395777 0.70411438
-0.91879863 -0.73034501 0.56252825
