# .PCD v0.7 - Point Cloud Data file format
VERSION 0.7
FIELDS x y z
SIZE 4 4 4
TYPE F F F
COUNT 1 1 1
WIDTH 1537
HEIGHT 1
VIEWPOINT 0 0 0 1 0 0 0
POINTS 1537
DATA ascii
6.2441053 -1.3146933 1.3029457
5.552485 -1.1852483 4.2176375
5.9968772 -1.2790231 3.6888509
5.2703996 -1.1211984 2.5783641
5.3909016 -1.1458557 2.0073144
6.0955243 -1.2945212 1.5936641
0.040907573 -0.020019023 3.6991327
3.4895904 -0.81496292 22.780283
3.3518355 -0.74907386 11.026885
3.2558007 -0.70922625 4.0660868
0.21836099 -0.061610289 3.763139
0.40216944 -0.098191448 3.8179264
3.0553226 -0.69453114 12.100882
3.7983057 -0.85028505 10.638916
3.4233122 -0.75945944 7.3142166
5.7319574 -1.2643719 9.6712923
4.4221115 -0.96897823 4.9859138
4.7098379 -1.0173953 4.8148937
7.6966619 -1.6584167 6.4308133
5.851737 -1.2598144 4.0090837
6.0127044 -1.2922817 3.3058078
5.5849524 -1.1993308 2.3962274
5.5677338 -1.194622 1.7637489
6.2346749 -1.3354524 1.302013
3.7504466 -0.81563061 3.4995821
5.5404139 -1.2029076 4.2117515
6.017653 -1.3054318 3.7040501
5.2841973 -1.1434282 2.5867565
5.4053311 -1.1686581 2.0138886
6.0672135 -1.3106591 1.5878024
0.040837444 -0.020161696 3.6991327
3.4806762 -0.82570362 22.740768
3.3593895 -0.76308435 11.060288
3.1957731 -0.71774387 7.7758832
4.6267886 -1.0273604 7.0334907
3.2626936 -0.72266638 4.0775995
0.21814458 -0.062372137 3.763139
0.40182421 -0.099594682 3.8179264
3.0981936 -0.71566188 12.279941
3.7179127 -0.84592474 10.423049
3.4482474 -0.77763098 7.3727331
5.7402329 -1.2872261 9.6926222
4.2830319 -0.95418203 4.8352323
4.685359 -1.0292383 4.7938666
7.7934828 -1.7077684 6.515552
5.781949 -1.2659239 3.9652202
6.0038295 -1.3123163 3.3034892
5.4539151 -1.1911218 2.3437824
5.5729036 -1.2160952 1.7665689
6.1435809 -1.3383862 1.2852259
3.776742 -0.83516693 3.526186
5.5203934 -1.2187542 4.1999788
6.0341072 -1.3310724 3.7167156
5.3422284 -1.1755215 2.6161289
5.4242787 -1.1925892 2.0221062
5.9676533 -1.3109713 1.5643561
0.040766817 -0.020304121 3.6991327
3.4860818 -0.8398509 22.795099
3.3683412 -0.7774924 11.098465
3.2256269 -0.73628676 7.8541255
4.620429 -1.0428849 7.0293574
0.21764861 -0.063051663 3.7581472
0.40147412 -0.1009967 3.8179264
3.0969002 -0.72675943 12.28478
3.7519257 -0.86745054 10.526289
3.4455118 -0.7896629 7.3727331
5.6950197 -1.2979821 9.6243668
3.625639 -0.82366168 4.9980097
4.2862878 -0.97062427 4.8425827
4.674777 -1.0440323 4.7868571
7.8824534 -1.7561232 6.5940132
5.8632073 -1.3051792 4.0227909
5.4678268 -1.2141721 2.3512747
5.577991 -1.237619 1.769389
6.0909123 -1.3491995 1.2758998
3.7701607 -0.84752613 3.5228605
5.5121617 -1.2371315 4.1970358
6.050456 -1.3568439 3.7293816
5.4000988 -1.2080337 2.6455019
5.4477334 -1.2176969 2.0319672
5.9298344 -1.3243778 1.5561498
0.040695693 -0.020446301 3.6991327
3.4823747 -0.85182989 22.790161
3.3772328 -0.79197228 11.136641
3.4209621 -0.79345477 8.3327885
5.0623732 -1.1667928 9.5878477
4.6249895 -1.0608946 7.0417566
4.2792697 -0.97923952 5.3324633
0.21742719 -0.063811019 3.7581472
0.4016355 -0.10252988 3.8228979
3.0943444 -0.73756522 12.28478
3.7791138 -0.8876456 10.61076
3.4702969 -0.80810422 7.4312487
5.6167717 -1.3007883 9.5006542
4.6641483 -1.0587651 4.7798486
7.9901614 -1.809418 6.6881676
5.8912425 -1.3330203 4.0447226
5.8692145 -1.3258905 3.2362437
5.4002452 -1.2189603 2.3250523
5.8497281 -1.3193529 1.8525808
6.0813732 -1.3693734 1.2749671
3.7890196 -0.86567134 3.5428135
5.5393357 -1.2635565 4.2205811
6.0835094 -1.3865775 3.7521803
5.3515935 -1.2168134 2.6245213
5.4618692 -1.2408904 2.0385413
5.8588152 -1.3300042 1.5397375
0.040624075 -0.020588232 3.6991327
3.4823961 -0.86472964 22.809917
3.377352 -0.80444807 11.146185
3.6881945 -0.86902303 8.9863472
5.05827 -1.1844567 9.5878477
4.6130357 -1.0751159 7.0293574
4.2976794 -0.9992525 5.3593259
0.21720313 -0.064569592 3.7581472
0.40127516 -0.10393123 3.8228979
3.0978594 -0.74984092 12.308977
3.4928768 -0.82622707 7.4852633
5.5208039 -1.2988832 9.3470812
3.6432698 -0.8544578 5.0299301
4.5104861 -1.0545532 5.099844
4.6465244 -1.071833 4.76583
7.9875898 -1.8381708 6.6913061
5.8865533 -1.3535765 4.0447226
6.0674729 -1.392957 3.3452275
5.441143 -1.2481687 2.3437824
5.8030047 -1.3301183 1.8398906
6.0574021 -1.3862097 1.2712367
3.880538 -0.90084565 3.6292768
5.5388293 -1.2837974 4.2235241
6.0534348 -1.4019686 3.7369814
5.3428922 -1.234465 2.6224234
5.4575043 -1.2599483 2.0385413
5.8494005 -1.3493546 1.5385652
0.04055196 -0.020729911 3.6991327
3.8003156 -0.95779747 24.914042
3.3846791 -0.81868929 11.179588
3.555939 -0.8509692 8.6733751
5.0447841 -1.1998892 9.5702925
4.6174703 -1.0931569 7.0417566
0.2169764 -0.065327376 3.7581472
0.40090993 -0.1053313 3.8228979
3.092782 -0.76004976 12.299298
3.9287996 -0.95179874 11.047187
3.4920881 -0.83892298 7.4897647
5.3310642 -1.2738956 9.0356674
3.7018206 -0.88183457 5.1137204
4.5034795 -1.069508 5.096169
4.580255 -1.0733982 4.7027483
5.4607134 -1.2767404 4.6042323
5.8532901 -1.3674572 4.0255327
5.9676652 -1.3919897 3.2942138
5.5180211 -1.2860959 2.377497
6.081234 -1.4140207 1.2768323
7.4070902 -1.7441039 5.6244683
6.0568967 -1.425065 3.7420475
5.3297133 -1.2510332 2.618227
5.6047873 -1.3145751 2.092777
5.6364293 -1.3209642 1.4869832
0.040479355 -0.020871338 3.6991327
3.7924325 -0.96990174 24.884405
3.3731034 -0.8283627 11.150957
3.4561288 -0.83984649 8.4386463
5.0196128 -1.2124302 9.5307903
3.8043764 -0.91258955 4.7606754
0.21702282 -0.066169783 3.763139
0.40053982 -0.1067301 3.8228979
3.0901098 -0.770841 12.299298
3.9254532 -0.96550703 11.047187
3.4975979 -0.85317129 7.5077691
5.4710498 -1.3275533 9.2788258
3.7045772 -0.89616805 5.1217003
4.4766493 -1.0796574 5.0704427
4.1740408 -0.99357945 4.2962208
5.4637971 -1.2975929 4.6105089
5.82407 -1.3820877 4.0090837
5.3871846 -1.2754437 2.3250523
4.9673047 -1.1751233 1.5903147
5.6938057 -1.3449013 1.2022228
4.5422692 -1.087945 4.2411685
7.3341274 -1.7539661 5.5744348
6.0476928 -1.445197 3.7395144
5.316484 -1.2675246 2.6140308
5.6001644 -1.3341315 2.092777
5.754724 -1.3698968 1.5174633
0.040406253 -0.021012507 3.6991327
3.7784946 -0.9804011 24.815256
3.4092968 -0.84988207 11.279799
3.4512792 -0.85143745 8.4340439
5.0060458 -1.2276627 9.5132332
3.0952394 -0.75561398 4.7521033
3.8385379 -0.93496668 4.8067255
0.21679053 -0.066926934 3.763139
0.40016481 -0.10812759 3.8228979
3.088619 -0.78193134 12.304138
3.9321046 -0.98171192 11.075343
3.4798067 -0.86171168 7.4762607
5.4663825 -1.3466427 9.2788258
3.7219107 -0.91412538 5.149631
4.3477244 -1.0646353 4.9307866
3.9798949 -0.96205503 4.1034708
5.4630184 -1.3175697 4.6136475
5.7907553 -1.3955513 3.9898934
5.3556547 -1.2877377 2.3138139
5.0611229 -1.2159892 1.6199255
5.7416201 -1.3773732 1.2124815
4.5457006 -1.1055586 4.2478194
7.2376208 -1.7576174 5.506742
6.0551791 -1.4693483 3.7471139
5.303205 -1.2839389 2.6098349
5.4531908 -1.3192497 2.0418282
5.92944 -1.4333764 1.5620115
0.04033266 -0.021153426 3.6991327
3.7893262 -0.99734324 24.909101
3.4149921 -0.86397469 11.308433
3.4217544 -0.85683483 8.3696089
4.9901099 -1.2422366 9.4912882
3.0789261 -0.76302892 4.7314382
3.8850348 -0.96067113 4.8681254
0.21655558 -0.067683265 3.763139
0.39978492 -0.10952377 3.8228979
3.0858705 -0.79270786 12.304138
3.9537456 -1.00179 11.145735
3.4683325 -0.87173033 7.4582558
5.4110465 -1.3530617 9.1935081
3.7508581 -0.93513036 5.193521
4.3209515 -1.0740802 4.9050603
4.5272026 -1.1111021 4.6606936
5.4508252 -1.3347797 4.6073709
5.7614789 -1.4097931 3.9734445
6.0517359 -1.4785877 3.3475463
5.3421197 -1.3042257 2.3100679
5.056848 -1.2336484 1.6199255
4.5236893 -1.1169441 4.2311921
4.8806734 -1.2032911 3.743789
6.0667562 -1.4946008 3.7572467
5.2854695 -1.2991928 2.6035409
5.3568354 -1.315749 2.0089581
5.929121 -1.455224 1.5631838
0.040258575 -0.021294083 3.6991327
3.7850707 -1.0103639 24.904163
3.4394255 -0.88294303 11.399099
3.4225295 -0.86973625 8.3788137
4.9903874 -1.2608212 9.5000668
3.0544119 -0.76827985 4.6983747
3.7915022 -0.95159775 4.7568378
0.21631801 -0.068438776 3.763139
0.39940017 -0.11091862 3.8228979
3.0855176 -0.80410892 12.313817
3.966938 -1.0198826 11.192662
3.4631596 -0.88329381 7.4537549
5.312758 -1.3482046 9.0356674
3.7242014 -0.94230425 5.1616006
4.3106012 -1.0874979 4.8977098
4.5959659 -1.1450033 4.7342892
5.4536872 -1.3556764 4.6136475
5.7199998 -1.4208235 3.9487712
6.0508375 -1.5007696 3.3498652
5.3285346 -1.3206346 2.3063219
5.2527356 -1.3008803 1.6805569
4.4038668 -1.1036814 4.1247764
4.8803649 -1.2213018 3.7467322
6.032227 -1.5084478 3.7395144
5.2676911 -1.3143382 2.5972464
5.3292999 -1.3287278 2.0007405
5.8438258 -1.4559355 1.5432544
0.040183999 -0.021434482 3.6991327
3.7860208 -1.0247885 24.933798
3.437767 -0.89531982 11.403872
3.4213648 -0.88216573 8.3834162
4.9418764 -1.266932 9.4166746
3.0598912 -0.78102505 4.7107739
3.7602029 -0.95770645 4.7223001
0.2160778 -0.069193445 3.763139
0.39952353 -0.11245706 3.8278694
3.0839071 -0.81519574 12.318656
3.9633536 -1.0337236 11.192662
3.4748075 -0.89919508 7.4852633
5.2347765 -1.3478813 8.9119558
3.6887853 -0.94705534 5.1177106
4.1425672 -1.0604978 4.7139516
4.2876868 -1.0841076 4.425889
5.4489217 -1.3747051 4.6136475
5.723114 -1.4428257 3.9542544
6.1142945 -1.5391846 3.386966
5.6430984 -1.419524 2.439307
5.2109442 -1.3098524 1.6692767
4.9465895 -1.2562392 3.7997091
5.9642501 -1.5135894 3.7015166
5.2586722 -1.3316039 2.5951486
5.2513833 -1.3287883 1.9744444
5.866982 -1.4834746 1.5502883
0.040108934 -0.02157462 3.6991327
3.7869163 -1.039232 24.963434
3.4591551 -0.9137966 11.484995
4.8771596 -1.2684995 9.3025579
3.0571463 -0.79170138 4.7107739
3.645119 -0.94195473 4.5841498
0.21583496 -0.06994728 3.763139
0.39912853 -0.11385097 3.8278694
3.0834706 -0.82660669 12.328335
3.9280241 -1.0391654 11.103499
3.4884923 -0.91574126 7.5212731
5.1972351 -1.3575766 8.8564987
4.0436831 -1.050236 4.6073718
4.2320609 -1.0857735 4.3733211
5.4440899 -1.3937169 4.6136475
5.7180429 -1.4627943 3.9542544
6.2161837 -1.5879282 3.4449358
5.642601 -1.4403601 2.4411802
5.2202849 -1.3315909 1.6735067
6.1692934 -1.5713786 1.3001478
5.0829668 -1.311663 4.7566209
4.9382601 -1.2724897 3.796766
5.9380569 -1.5290242 3.6888509
5.3111362 -1.3646349 2.6224234
5.3793535 -1.3811672 2.0221062
5.85706 -1.5027372 1.549116
0.040033378 -0.021714494 3.6991327
3.7847631 -1.0528611 24.973312
3.450177 -0.9243204 11.465908
4.8171239 -1.2708526 9.1972198
3.0679724 -0.80594307 4.7314382
3.5922012 -0.94166785 4.5227499
0.21531555 -0.070609085 3.7581472
0.39924064 -0.11539204 3.8328409
3.0817797 -0.83769476 12.333174
3.9127059 -1.0497398 11.07065
3.5294509 -0.93967545 7.615798
5.2000284 -1.377714 8.869297
3.8859129 -1.0237502 4.434639
4.3007216 -1.1194048 4.4469166
5.4467263 -1.414669 4.6199245
5.7655177 -1.4964015 3.9898934
6.1977382 -1.6062828 3.4379795
5.0391307 -1.3041327 1.6199255
6.1495028 -1.5892166 1.2973499
5.1072536 -1.3369625 4.7832251
4.9455199 -1.2927865 3.8055954
5.7491665 -1.5018033 3.5773909
5.3239074 -1.387745 2.6308155
5.5618572 -1.4487393 2.0894899
5.851779 -1.5231731 1.549116
0.039957337 -0.021854104 3.6991327
3.7773254 -1.0650115 24.948616
3.4541318 -0.93831497 11.489767
3.9062166 -1.0509412 9.5892773
4.676156 -1.2511351 8.9382648
3.0787363 -0.82027006 4.7521033
3.6229661 -0.96326113 4.5649624
0.21506776 -0.071360245 3.7581472
0.3993468 -0.11693526 3.8378124
3.0812602 -0.84911501 12.342854
3.561878 -0.96163684 7.6923189
5.1951876 -1.3958572 8.869297
5.0408177 -1.3506192 6.9850421
3.6333969 -0.970797 4.1553268
4.3071318 -1.1371412 4.4574299
5.4342275 -1.4316896 4.6136475
5.7683463 -1.518647 3.9953761
5.1257424 -1.3466072 2.2295275
5.0345473 -1.3217146 1.6199255
6.143918 -1.6106727 1.2973499
5.0159464 -1.3317856 4.703413
4.9448843 -1.3110776 3.8085387
5.9064026 -1.5649216 3.6761849
5.5111113 -1.4560823 2.073055
5.8323274 -1.5398678 1.5455991
0.039880812 -0.021993449 3.6991327
3.7728376 -1.0779767 24.943676
3.4508355 -0.95036638 11.489767
3.8799074 -1.0583998 9.5340471
4.6024175 -1.2486362 8.806592
3.0812874 -0.83247989 4.7603693
0.21481736 -0.072110534 3.7581472
0.39944711 -0.11848065 3.8427839
3.0794883 -0.86020374 12.347692
3.6487856 -0.99878073 7.8858714
5.1902833 -1.4139833 8.869297
5.0447955 -1.3705767 6.9970117
3.8001387 -1.0295759 4.3464351
4.2549081 -1.1392553 4.4083662
5.4291968 -1.45065 4.6136475
5.7953286 -1.5474026 4.0173078
4.2217345 -1.1256601 2.3736503
5.1971641 -1.3847826 2.261369
4.8722944 -1.2973145 1.5719843
6.0670495 -1.6131752 1.2833607
5.418673 -1.4589843 5.0791945
4.9480834 -1.3304296 3.8144248
6.06743 -1.6302744 3.7775121
6.1031499 -1.6364546 3.0084648
5.4375753 -1.456978 2.0484023
5.6250219 -1.5061573 1.4951894
0.039803796 -0.022132525 3.6991327
3.7668128 -1.0904914 24.92886
3.4848778 -0.97284323 11.613839
3.8724232 -1.0708952 9.5248423
3.7990401 -1.0449154 7.2879705
3.0620785 -0.83876956 4.7355714
3.946974 -1.0789708 4.9755754
0.21456434 -0.072859943 3.7581472
0.3990311 -0.11987425 3.8427839
3.0764668 -0.87094796 12.347692
3.894851 -1.0887967 11.05188
3.7585516 -1.0429463 8.1289368
5.2280526 -1.4438958 8.9418173
5.0719366 -1.39698 7.0409021
4.0253558 -1.1056943 4.6036968
4.2164888 -1.1447564 4.3733211
5.7979646 -1.5698082 4.0227909
4.2306075 -1.1438583 2.3806067
5.2639055 -1.4222634 2.2913375
4.9140487 -1.3268188 1.5860847
6.0613809 -1.6343433 1.2833607
5.4927902 -1.4995239 5.1523557
4.9317107 -1.344504 3.8055954
6.0117917 -1.6378461 3.7471139
6.0667439 -1.6494135 2.9937785
5.1362534 -1.3954732 1.9415742
5.6478748 -1.5334245 1.5022233
0.039690912 -0.0222458 3.6941328
3.7614923 -1.103196 24.91898
3.5015688 -0.99069178 11.680646
3.9495506 -1.1070818 9.7227507
3.7861416 -1.0555972 7.2704148
3.0591321 -0.84945309 4.7355714
3.9308281 -1.0893176 4.9602251
0.21430871 -0.073608473 3.7581472
0.39861023 -0.12126641 3.8427839
3.0758245 -0.88237488 12.357371
3.9292138 -1.1132059 11.159813
3.8617642 -1.0861214 8.3584986
5.2104235 -1.4586208 8.9204874
3.3314807 -0.93010211 4.6548676
4.0900559 -1.138836 4.6808753
4.2021518 -1.1566284 4.3628073
5.8529334 -1.6066407 4.0639129
5.6876774 -1.5591499 3.1736362
5.2678514 -1.443079 2.2950838
4.9001336 -1.3414308 1.5832646
6.0319476 -1.6490145 1.2786976
5.5990758 -1.5495616 5.255446
4.9503632 -1.3681715 3.8232543
5.9894171 -1.6542305 3.7369814
5.3258886 -1.4679729 2.6413057
5.1859827 -1.4284415 1.9612963
0.039613016 -0.022384213 3.6941328
3.7561288 -1.1158767 24.909101
3.5440059 -1.0160749 11.83335
3.9456623 -1.1208615 9.7227507
3.7801292 -1.0681555 7.2660255
3.0426042 -0.85631412 4.7149067
4.0566058 -1.1394378 5.1214004
0.21405046 -0.074356101 3.7581472
0.39818451 -0.12265708 3.8427839
3.0678973 -0.89170259 12.338014
3.9253039 -1.1269146 11.159813
4.0714912 -1.1604642 8.8176222
5.2027912 -1.4760878 8.9162226
3.3282139 -0.94172549 4.6548676
4.1872001 -1.1816506 4.7948055
4.2152643 -1.1760818 4.3803301
6.3811197 -1.7768021 5.4233694
5.8231196 -1.6203357 4.0474644
5.8742642 -1.6323664 3.2779822
5.2493811 -1.4577371 2.2894645
4.9000435 -1.35981 1.5846746
6.0545573 -1.6779313 1.2842933
5.6871023 -1.595317 5.3419094
4.9805865 -1.3952563 3.8497427
6.0126643 -1.6832623 3.7547135
5.5611444 -1.5537243 2.7566986
5.2264471 -1.4592344 1.9777315
0.03953464 -0.022522351 3.6941328
3.7507226 -1.1285334 24.899223
3.5390041 -1.0280231 11.828579
3.8027973 -1.0946332 9.382164
3.7763774 -1.0813441 7.2660255
2.9962993 -0.85457969 4.6487794
4.0310245 -1.1474481 5.0945382
0.2137896 -0.075102821 3.7581472
0.39775392 -0.12404625 3.8427839
3.0659719 -0.90276116 12.342854
3.8948345 -1.1328973 11.084729
4.0987878 -1.1837302 8.8851404
5.2602696 -1.5122554 9.0228701
3.3133202 -0.95001513 4.6389074
4.2319417 -1.2102423 4.8499327
4.2660398 -1.2063154 4.4364028
6.3823709 -1.8011799 5.4296465
5.8174281 -1.6406523 4.0474644
5.3099585 -1.4955382 2.9742196
5.2174859 -1.4685156 2.2782264
4.5535455 -1.2807881 1.4803323
5.8359318 -1.659063 5.4849057
4.9717979 -1.4115295 3.8467996
5.9901633 -1.6995336 3.7445807
5.7434607 -1.6262969 2.8469148
5.3121967 -1.5031841 2.0106015
0.039455779 -0.022660214 3.6941328
3.7460175 -1.1413924 24.894285
3.485275 -1.0256194 11.661559
3.7708199 -1.0996954 9.3131256
3.7656794 -1.0925174 7.2528582
2.9500439 -0.85253245 4.5826521
3.9654012 -1.1437457 5.0177879
0.21352614 -0.075848632 3.7581472
0.39731851 -0.12543392 3.8427839
3.0603931 -0.91273928 12.333174
5.3050375 -1.5451952 9.1081886
3.2984097 -0.95821226 4.6229472
4.2244353 -1.2240636 4.8462577
4.2789445 -1.2261112 4.4539256
6.4022408 -1.8309394 5.4516153
5.7835226 -1.6529056 4.0282736
5.1641359 -1.4739424 2.8976991
5.2346182 -1.4930773 2.2875915
4.5813398 -1.3058801 1.4902024
5.9018626 -1.7000952 5.5514159
5.8971925 -1.6954195 3.6913841
5.8424487 -1.6763773 2.8972681
5.3069172 -1.521718 2.0106015
0.039376441 -0.022797804 3.6941328
3.7405255 -1.1540033 24.884405
3.4673686 -1.0335146 11.613839
3.7411625 -1.0995767 7.213356
2.9497507 -0.86361563 4.5867853
3.9460013 -1.1530851 4.9986005
0.21326007 -0.076593511 3.7581472
0.39687824 -0.12682004 3.8427839
3.5478468 -1.0588763 10.122711
3.7877822 -1.122612 8.2324648
5.3021126 -1.5644419 9.1124544
3.2863729 -0.96716779 4.6109776
4.2006197 -1.2330726 4.8242068
4.2746382 -1.2410401 4.4539256
6.3958101 -1.853276 5.4516153
5.7737007 -1.6719207 4.0255327
5.9164243 -1.7110204 3.3104455
5.2338281 -1.5126275 2.2894645
4.5767536 -1.321864 1.4902024
5.8923078 -1.7196401 5.54809
5.6952415 -1.6599765 4.4030566
5.8788218 -1.7123777 3.6837845
5.9324389 -1.7246343 2.9434252
5.265296 -1.5296937 1.9974536
0.039296623 -0.022935115 3.6941328
3.7349911 -1.1665897 24.874527
3.4480207 -1.0408658 11.561347
3.5627847 -1.0660633 8.8206558
3.7510741 -1.1167297 7.2396903
2.9548116 -0.87630737 4.599184
3.8835578 -1.1495661 4.9256883
0.21299142 -0.077337466 3.7581472
0.39643312 -0.12820464 3.8427839
3.5474327 -1.0722528 10.132097
3.7775853 -1.1339493 8.2189608
5.2666345 -1.5739783 9.061264
3.2598753 -0.97174668 4.5790572
4.1832914 -1.243863 4.8095059
4.2258034 -1.2428719 4.4083662
6.3967719 -1.8777831 5.4578924
5.7277064 -1.6802936 3.9981177
5.491015 -1.6077472 2.3999734
4.5030518 -1.3176242 1.469052
5.9399781 -1.756076 5.5979724
5.6351409 -1.6638222 4.3618526
5.8273282 -1.719468 3.6559193
5.8741393 -1.7299459 2.9182487
5.0379519 -1.4827338 1.9169216
0.039251167 -0.023098411 3.6991327
3.7294147 -1.1791515 24.864649
3.4857633 -1.0655515 11.699735
3.545954 -1.0745269 8.7884378
4.7400284 -1.4292049 9.1401615
2.9517348 -0.88661623 4.599184
3.8703108 -1.1603535 4.9141755
0.21272017 -0.078080475 3.7581472
0.39598322 -0.12958767 3.8427839
3.5024159 -1.0720013 10.014778
3.7673559 -1.145229 8.2054577
5.211184 -1.5772419 8.9759445
3.2362709 -0.97702336 4.5511274
4.1724315 -1.2565026 4.8021555
4.0847273 -1.2168854 4.2681847
6.3603315 -1.8912256 5.432785
5.7658963 -1.7133788 4.0282736
5.8915949 -1.7485018 3.3034892
5.4853697 -1.6269046 2.3999734
4.4984245 -1.3333347 1.469052
3.8163159 -1.1427289 3.6292768
5.5479751 -1.6591614 4.3000464
5.7593365 -1.7212822 3.6179218
4.8743582 -1.4530932 1.8593987
0.039170299 -0.023235284 3.6991327
3.7237957 -1.1916887 24.854769
3.4763186 -1.0759469 11.680646
4.7006516 -1.4352506 9.0743256
2.9459298 -0.89609534 4.5950508
3.8631697 -1.1729251 4.9103379
0.21244632 -0.078822531 3.7581472
0.39552844 -0.13096912 3.8427839
3.5167842 -1.0898401 10.066399
3.7778995 -1.1628559 8.2369661
5.1807108 -1.5877801 8.9332857
3.1924984 -0.97598016 4.4952669
4.1647778 -1.2700706 4.7984805
3.9131575 -1.1806583 4.0964618
6.316421 -1.9021918 5.4014001
5.7638845 -1.7347001 4.0310154
5.8557591 -1.7601304 3.2872574
5.5950952 -1.6807193 2.4486723
4.4569869 -1.3379946 1.4577718
5.9382935 -1.8007526 5.6079493
5.5963087 -1.6949205 4.3412504
5.7202859 -1.731385 3.5976565
5.4448385 -1.6449093 2.7168357
4.5618534 -1.3772887 1.7476401
0.039088953 -0.02337187 3.6991327
3.7181351 -1.2042011 24.844893
3.446903 -1.0800403 11.594751
3.312619 -1.0291164 8.2315331
4.7779856 -1.4771174 9.2323332
2.9481626 -0.90802985 4.6033173
3.8559883 -1.1854609 4.9065003
0.21216987 -0.079563625 3.7581472
0.39506885 -0.13234898 3.8427839
3.5327168 -1.1083087 10.122711
3.8403239 -1.1967634 8.3810053
5.1676645 -1.6035357 8.9204874
3.1890721 -0.98711807 4.4952669
4.1408834 -1.2785993 4.7764297
3.9976881 -1.2214047 4.1875796
6.3283577 -1.9299054 5.4170923
5.7777934 -1.7609044 4.0447226
5.8495793 -1.78056 3.2872574
5.6335464 -1.7137316 2.4674027
4.4706478 -1.3591256 1.4634118
3.8689232 -1.1879759 3.6858103
5.7101536 -1.7511843 4.4324884
5.6111684 -1.7197611 3.534327
5.4390635 -1.6639053 2.7168357
4.5886288 -1.4028685 1.7591448
0.039007135 -0.023508174 3.6991327
3.7124324 -1.2166884 24.835014
3.3677018 -1.0681442 11.341836
3.3295064 -1.0471212 8.2821608
4.8527985 -1.5188258 9.385951
2.9503479 -0.91999084 4.6115828
3.8181624 -1.1884348 4.8642879
0.21189086 -0.080303751 3.7581472
0.39460447 -0.13372722 3.8427839
3.5288265 -1.1206335 10.122711
3.8340473 -1.2095064 8.3765039
5.2117987 -1.6371973 9.005806
3.2028592 -1.0036505 4.519207
4.1008024 -1.281919 4.7360029
4.0410976 -1.2501074 4.2366438
6.340178 -1.9577259 5.432785
5.7756066 -1.7822949 4.0474644
5.8009953 -1.7879204 3.2640696
5.5034757 -1.6951745 2.4149578
4.4933848 -1.3831906 1.471872
5.7310266 -1.7794961 4.4530907
5.5804281 -1.7316715 3.5191278
5.4505639 -1.6882523 2.7252278
4.5882144 -1.4202734 1.7607882
0.038924839 -0.02364419 3.6991327
3.7066877 -1.2291505 24.825134
3.1393955 -1.0077957 10.587863
4.9068289 -1.5545639 9.5000668
2.9578521 -0.93367237 4.6281147
0.21134013 -0.080938458 3.7531557
0.39413527 -0.13510382 3.8427839
3.5265362 -1.1334726 10.127404
3.8360233 -1.224869 8.390008
5.2408471 -1.6664442 9.0655289
3.1964643 -1.0139135 4.5152168
4.0639806 -1.2859974 4.6992512
4.0367093 -1.2642058 4.2366438
6.3518806 -1.9856521 5.4484768
5.7893057 -1.8086793 4.0611715
5.342247 -1.6669694 3.0159578
5.5019512 -1.7157551 2.4168308
4.5068483 -1.4045763 1.4775121
5.1462541 -1.6196026 4.8863158
5.6785088 -1.7849452 4.4177728
5.557899 -1.7459725 3.5089951
5.2973971 -1.6610974 2.6538939
4.5111322 -1.413687 1.7344921
0.038807686 -0.023753051 3.6941328
3.7016377 -1.2418345 24.820194
3.242332 -1.0533434 10.945762
3.6679833 -1.1817857 9.1382303
4.9036527 -1.5724136 9.5044556
4.246449 -1.3543386 5.4130511
0.21105632 -0.081675678 3.7531557
0.39366126 -0.1364788 3.8427839
3.5406094 -1.1516478 10.179025
3.8006525 -1.2282099 8.3224888
5.2548594 -1.6911201 9.0996571
3.2158577 -1.0324341 4.5471373
4.023953 -1.2888005 4.6588244
4.1410561 -1.3127763 4.3487887
4.0181537 -1.2715088 3.4806647
5.7989044 -1.8339202 4.0721374
5.8939748 -1.8617322 3.3220396
5.4959283 -1.7349501 2.4168308
4.5019178 -1.4202996 1.4775121
5.1298966 -1.6341567 4.8763394
5.6260228 -1.7900496 4.3824549
5.6914458 -1.8097774 3.5951233
5.1963978 -1.6493711 2.6077368
4.5196738 -1.4337088 1.7394227
0.038724538 -0.02388837 3.6941328
3.6958086 -1.2542485 24.810316
3.1946764 -1.0502019 10.79783
3.6508341 -1.1903425 9.1060123
4.9140806 -1.594696 9.5351791
3.2672081 -1.0564688 5.1158028
4.2874494 -1.3839225 5.4706135
0.21076994 -0.082411908 3.7531557
0.39318249 -0.1378521 3.8427839
3.5464027 -1.1672372 10.207181
3.773582 -1.2340256 8.2729759
5.2811623 -1.7199523 9.1551142
3.2437577 -1.0538958 4.5910273
4.0323291 -1.3070202 4.6735249
4.2586942 -1.3664486 4.4749527
4.009984 -1.2843399 3.4775262
5.7526441 -1.8414034 4.0447226
5.9085369 -1.8890395 3.3336334
4.9422588 -1.5791581 2.1845746
4.5197816 -1.4433019 1.4845623
5.145483 -1.6589276 4.8962922
5.5928078 -1.8010043 4.3618526
5.7876821 -1.8626499 3.6584527
5.1344352 -1.6494538 2.580462
4.501153 -1.4451458 1.7344921
0.038640916 -0.024023399 3.6941328
3.6906734 -1.2668893 24.805378
3.1782436 -1.0571065 10.754882
4.9244123 -1.6170704 9.5659027
3.2608259 -1.0669918 5.1116695
4.2795453 -1.3978848 5.4667764
0.21048097 -0.083147131 3.7531557
0.39269888 -0.13922372 3.8427839
3.5341203 -1.1768829 10.183718
3.878788 -1.2834373 8.5115395
5.2776031 -1.7391926 9.15938
3.2400589 -1.0652122 4.5910273
4.0277424 -1.3210877 4.6735249
4.223372 -1.3713932 4.4434118
4.031395 -1.306731 3.4994953
5.4359045 -1.7609569 3.8308885
5.9271946 -1.9178352 3.3475463
4.8484955 -1.5678718 2.147114
5.2496166 -1.6965781 1.7115775
5.1893554 -1.6930926 4.9428492
5.5672712 -1.8142537 4.347137
5.8385296 -1.9015309 3.6939173
5.219286 -1.6968342 2.6245213
4.3658404 -1.4185314 1.6868303
0.038556822 -0.024158135 3.6941328
3.6847606 -1.2792547 24.7955
3.105212 -1.0448647 10.521055
4.9255557 -1.6365154 9.5790691
3.2303677 -1.0695226 5.0703402
4.2715964 -1.4118088 5.4629388
0.20992181 -0.083773144 3.7481639
0.3897025 -0.13969168 3.8179264
3.5103667 -1.1826003 10.127404
3.7875824 -1.2679422 8.3224888
3.20487 -1.0660533 4.5471373
4.1711264 -1.3705412 4.3943481
4.0268092 -1.3207953 3.4994953
5.6721005 -1.8593761 3.9981177
4.4552641 -1.4579073 1.9822872
5.2983756 -1.7327861 1.7284981
5.1798682 -1.7100259 4.9395237
5.5685816 -1.8362076 4.3530231
5.7827258 -1.9057082 3.6635191
4.9158568 -1.6171805 2.4797556
4.3518906 -1.4308126 1.6835433
0.038472261 -0.024292575 3.6941328
3.6795397 -1.2918518 24.79056
3.0930672 -1.0528111 10.492422
3.7847309 -1.2721426 7.3845301
3.1892586 -1.0682784 5.0124788
4.2666421 -1.4267108 5.4629388
0.20989537 -0.084614523 3.7531557
0.38720858 -0.14032258 3.7980404
3.4898829 -1.1892794 10.080476
3.9377756 -1.3335292 8.66008
4.2842565 -1.4450632 7.4658036
3.1868496 -1.0724282 4.5271869
3.4913516 -1.1722053 4.0707979
3.7771423 -1.255707 3.9913254
4.428534 -1.4697063 3.8447256
4.9392834 -1.6382624 3.4964294
5.9515066 -1.9717058 3.3684156
4.4501481 -1.4734503 1.9822872
4.8869715 -1.617144 1.6030051
5.1597018 -1.7233652 4.9262218
5.5659728 -1.8569138 4.3559661
5.6165495 -1.8727034 3.5647252
4.8111382 -1.6013637 2.4315004
4.3379083 -1.4430137 1.6802562
0.038387228 -0.024426721 3.6941328
3.6735435 -1.3041679 24.780682
3.0639684 -1.0548539 10.406527
3.5192349 -1.2020451 8.8206558
3.7893376 -1.2884303 7.4020867
3.2601345 -1.1046925 5.1282015
4.2585998 -1.4405683 5.4591007
0.20959873 -0.085346676 3.7531557
2.3670363 -0.86950451 23.475252
3.4759219 -1.1980799 10.05232
3.9063246 -1.3380949 8.6015644
4.2890601 -1.4633784 7.4828677
3.1574142 -1.0748062 4.4912767
3.4679787 -1.1778436 4.0487471
5.1214275 -1.722507 5.3896394
5.3237062 -1.7874506 4.6105089
4.9216423 -1.6515031 3.4882052
5.9613886 -1.9980997 3.3776908
4.3746448 -1.4654148 1.9523187
4.8994923 -1.6402847 1.6086452
3.7033644 -1.2513154 3.5627666
4.9735041 -1.6785669 3.9056628
5.6099782 -1.8922974 3.5647252
4.8227234 -1.6239412 2.4398925
4.6729841 -1.5726166 1.805163
0.038301729 -0.024560569 3.6941328
3.667506 -1.3164577 24.770803
3.5150175 -1.2143221 8.8206558
3.7848172 -1.3016497 7.4020867
3.2855406 -1.1261027 5.1736641
4.1898608 -1.4336332 5.3785133
0.20929955 -0.086077794 3.7531557
2.3614883 -0.8768335 23.450396
3.4896429 -1.2164547 10.103941
3.7802682 -1.3096734 8.3359928
4.2765293 -1.4757886 7.4700699
3.1450961 -1.0828781 4.4793067
3.476671 -1.1943477 4.063448
5.2267981 -1.7782803 5.5052891
5.4501138 -1.8510872 4.7234936
4.8722925 -1.6538879 3.4580488
5.429976 -1.8410904 3.0878408
4.3738928 -1.4821638 1.9541916
4.8937368 -1.6573771 1.6086452
3.7307718 -1.2751031 3.592696
4.9829154 -1.7011412 3.9174354
5.6318974 -1.9216127 3.5824573
4.5110078 -1.535656 1.7476401
0.038215764 -0.024694117 3.6941328
3.6606975 -1.3284564 24.755985
3.2212601 -1.1342294 10.964849
3.4978471 -1.2220734 8.7884378
4.1874189 -1.4564849 8.1921206
3.3028598 -1.1449383 5.2067275
4.1696858 -1.4430082 5.3593259
0.2089978 -0.086807862 3.7531557
2.3663979 -0.88806927 23.52994
3.4170208 -1.2045302 9.9068441
3.7140393 -1.3012651 8.2009563
4.278739 -1.4932858 7.4828677
3.1526794 -1.0978138 4.4952669
3.5013015 -1.2164904 4.0965242
5.122766 -1.7628609 5.4036574
5.4841113 -1.8840113 4.7580166
4.8862638 -1.6776748 3.4717562
5.7126417 -1.9591922 3.2478378
4.8423219 -1.6597668 2.1564794
4.8289261 -1.6542389 1.5903147
5.0566792 -1.7480241 4.8464098
4.9349203 -1.7040125 3.8850608
5.6333051 -1.9440727 3.5875237
5.1502581 -1.7743597 2.6056387
4.4118567 -1.5191077 1.7131264
0.038129333 -0.024827365 3.6941328
3.6545792 -1.3406913 24.746107
3.2172813 -1.1454668 10.964849
3.4806657 -1.2297199 8.7562208
4.2387919 -1.4909614 8.3018475
3.3041542 -1.1583223 5.2149935
0.2086935 -0.087536871 3.7531557
2.3642802 -0.89670241 23.539883
3.4111698 -1.215871 9.9021511
3.6068771 -1.2778698 7.9758959
4.2931752 -1.5151563 7.5169954
3.1744077 -1.11782 4.531177
3.5482097 -1.2466865 4.1553268
3.6346223 -1.2649492 3.8616571
5.4444108 -1.8916456 4.7297702
4.9001284 -1.7015792 3.4854636
5.8773599 -2.038641 3.3429086
4.8890605 -1.6948813 2.1789556
4.8231225 -1.6710849 1.5903147
5.0716944 -1.7730577 4.8663626
5.642765 -1.969407 3.5976565
5.144033 -1.7923267 2.6056387
4.4288249 -1.5422636 1.721344
0.038042437 -0.024960309 3.6941328
3.6462343 -1.3520889 24.721411
3.4321973 -1.2260873 8.6457605
4.3147955 -1.5346426 8.4598551
3.7848344 -1.3394768 4.8834753
0.20838667 -0.088264816 3.7531557
2.3661129 -0.90685838 23.589596
3.4052813 -1.2271857 9.897459
3.5388627 -1.2676921 7.8363576
4.3468113 -1.5511708 7.6193776
3.2357755 -1.1521424 4.6229472
3.8185644 -1.3566747 4.4713907
3.6705525 -1.2918364 3.9037118
4.9257207 -1.7297572 3.5073953
5.7615261 -2.0210207 3.28262
5.1237311 -1.796294 2.2819724
4.7810416 -1.6752203 1.5790346
5.0830755 -1.7969731 4.8829904
5.5212831 -1.9497328 4.347137
5.0093284 -1.7650239 2.5426972
4.4278688 -1.5592824 1.7229875
0.037988499 -0.025121003 3.6991327
3.6422198 -1.3650811 24.726349
3.1011996 -1.1285884 10.597406
3.4150345 -1.2334145 8.6135426
4.2508163 -1.5286218 8.3457384
3.1767826 -1.138633 5.0290108
3.8133321 -1.3645597 4.9256883
0.20834222 -0.089106381 3.7581472
2.3589568 -0.91357142 23.549826
3.3993554 -1.238474 9.892766
3.5241823 -1.2763307 7.8138518
4.4076076 -1.5902338 7.7345581
3.274261 -1.1787409 4.6827979
3.7723286 -1.3550956 4.4236135
3.6693807 -1.3058369 3.9072163
5.9152079 -2.1016204 5.1440468
4.9157119 -1.7455413 3.5046537
5.7586107 -2.0426004 3.2849386
4.5668764 -1.618991 2.0459702
4.7751651 -1.6918991 1.5790346
5.073256 -1.8134484 4.8796644
5.4877982 -1.9594793 4.3265347
5.4624186 -1.9493477 3.4937961
4.9176307 -1.7520348 2.500736
4.400156 -1.5668087 1.71477
0.037900578 -0.025253454 3.6991327
3.6388857 -1.3783371 24.736229
3.0972414 -1.1394068 10.597406
3.4033678 -1.2426472 8.5951319
4.2161937 -1.5328122 8.288681
3.1992452 -1.1593027 5.0703402
3.8326581 -1.3865861 4.956388
0.20802991 -0.089833081 3.7581472
2.3582351 -0.92277175 23.574682
3.4047277 -1.2539111 9.9209223
3.5156171 -1.2871276 7.8048491
4.4020295 -1.6056094 7.7345581
3.2927787 -1.1984078 4.7147183
3.722964 -1.3520534 4.3721614
3.7688243 -1.356068 4.0158572
5.8931832 -2.1169918 5.1314926
4.8781056 -1.751386 3.482722
4.4259124 -1.5864301 1.9879062
4.8053584 -1.7215 1.5903147
5.0563607 -1.8273394 4.869688
5.4474707 -1.965477 3.4887297
4.9755344 -1.7922617 2.532207
4.4790773 -1.6125505 1.7459967
0.037812196 -0.025385598 3.6991327
3.6347778 -1.3913085 24.741167
3.1212265 -1.1606175 10.692846
3.3990092 -1.2545196 8.5951319
4.1276422 -1.5169506 8.1262846
3.1396909 -1.1501354 4.9835486
3.8639169 -1.413168 5.0024381
0.20771506 -0.0905587 3.7581472
2.3545039 -0.93080175 23.56971
3.4407606 -1.2808403 10.038241
3.7479281 -1.387043 8.3269901
4.4184208 -1.6290859 7.7729516
3.3423057 -1.2296634 4.7905283
3.5972886 -1.3206418 4.2325048
3.9651513 -1.4423641 4.22613
4.5723543 -1.6605486 4.004787
4.8837538 -1.7726831 3.4909463
5.6567564 -2.0510433 3.2362437
4.3201013 -1.5655415 1.9448265
4.8399129 -1.7529658 1.6030051
5.0639796 -1.8501035 4.8829904
7.4522395 -2.7197249 5.8599215
5.3595805 -1.954936 3.4380662
4.9564543 -1.8049595 2.5259128
4.4778581 -1.6297907 1.7476401
0.037723351 -0.025517434 3.6991327
3.6306241 -1.4042683 24.746107
3.1213481 -1.173081 10.707162
3.3909485 -1.2650108 8.585927
4.0751758 -1.5138347 8.0341148
3.0881569 -1.1434982 4.9091554
3.8258903 -1.4144205 4.9602251
0.2073977 -0.09128321 3.7581472
3.4443445 -1.2958816 10.061706
3.9000623 -1.4588479 8.673584
4.4298143 -1.6508747 7.8028131
3.377533 -1.2560275 4.8463888
3.6657588 -1.360319 4.3170342
4.1642666 -1.5312772 4.4399071
4.5190306 -1.65906 3.9639871
4.8343558 -1.7738754 3.4607904
5.470717 -2.0052221 3.1365354
4.2449613 -1.5550964 1.9148579
4.8292599 -1.7682002 1.601595
5.1205363 -1.8910526 4.9428492
7.3251429 -2.702352 5.768683
5.3001437 -1.9542452 3.4051347
4.9501238 -1.8222499 2.5259128
4.3436222 -1.5981253 1.6999784
0.037634052 -0.025648957 3.6991327
3.6264236 -1.4172157 24.751045
3.1172342 -1.1839695 10.707162
3.3554358 -1.2651218 8.5076838
4.0496874 -1.5204737 7.9946127
3.1289496 -1.1710399 4.9794154
3.8569596 -1.4412304 5.0062752
0.2070778 -0.092006609 3.7581472
2.4987133 -1.0080683 25.08602
3.5123844 -1.335498 10.27288
3.9560342 -1.4955481 8.8086195
4.4386683 -1.6718434 7.8284082
3.3646665 -1.264629 4.8344188
4.1923242 -1.5582292 4.4749527
4.5205097 -1.6775326 3.9702637
4.7850094 -1.7747444 3.4306343
4.9859896 -1.8473173 2.8698733
4.8742304 -1.8049477 2.1883206
4.7915664 -1.7733914 1.5917249
5.1174021 -1.9102207 4.9461746
5.7780347 -2.1545377 4.57376
4.9139576 -1.8284388 2.5112264
4.2627749 -1.5852953 1.6720387
0.037544291 -0.025780169 3.6991327
3.6221776 -1.4301512 24.755985
3.1186569 -1.1969832 10.72625
3.3765581 -1.2865663 8.5721197
4.0577908 -1.5396986 8.0209465
3.1222107 -1.1809592 4.9752822
3.8638995 -1.4592148 5.0216255
0.20675537 -0.092728876 3.7581472
2.4941921 -1.0163817 25.076077
3.5077012 -1.3477504 10.27288
3.9202864 -1.497694 8.7411013
3.2926264 -1.2506853 4.738658
4.0714488 -1.5432944 4.7984805
4.2202439 -1.5853953 4.5099983
5.3892803 -2.0213659 4.7234936
4.7787852 -1.7914363 3.4306343
5.058332 -1.8942274 2.9139307
4.9243431 -1.8430767 2.2126701
4.776361 -1.7867446 1.5889047
3.5945568 -1.3560754 3.5029078
5.7364383 -2.1618645 4.5472717
4.9676771 -1.871156 3.2050138
4.9032965 -1.8439827 2.5091283
4.2130132 -1.5835509 1.6556036
0.037454072 -0.025911065 3.6991327
3.6178849 -1.4430741 24.760923
3.1172428 -1.2089417 10.735794
3.4066863 -1.3116833 8.6595669
4.0479183 -1.5521384 8.0121689
3.1338403 -1.1978793 5.0000801
5.1823726 -1.9778587 6.7178025
0.20643042 -0.093450025 3.7581472
2.4945719 -1.0267056 25.115849
3.4724107 -1.3481189 10.183718
3.6124384 -1.3945464 8.0704212
2.6937737 -1.0361212 4.7910638
3.2376049 -1.242734 4.6668377
4.0660372 -1.5574969 4.7984805
5.4513435 -2.0663791 4.783124
4.7725029 -1.8081065 3.4306343
5.0516887 -1.9118729 2.9139307
4.7745824 -1.8051028 1.5903147
3.5688684 -1.3606335 3.4829545
5.7401886 -2.1861913 4.5561013
4.9812593 -1.896153 3.2176795
4.9010725 -1.8626997 2.5112264
4.2339458 -1.6083086 1.6654646
0.037396122 -0.026070507 3.7041323
3.6135464 -1.4559846 24.765865
3.1171734 -1.2214495 10.75011
3.402087 -1.3235669 8.6595669
4.540482 -1.7592227 8.9909334
3.1270149 -1.2077972 4.9959474
5.214314 -2.0109301 6.7676897
0.20584093 -0.094048902 3.7531557
2.4914653 -1.0356117 25.120821
3.4532256 -1.3545595 10.141482
3.6278296 -1.415059 8.1154337
2.6828477 -1.0426834 4.7782655
3.188298 -1.236593 4.6029978
4.019475 -1.5557718 4.7507033
3.666347 -1.406595 3.9387569
4.4917908 -1.7206013 3.9608486
4.8013067 -1.8382102 3.4553072
5.227035 -1.9991224 3.0159578
4.4393511 -1.6969799 2.0085094
4.7144785 -1.8012135 1.5733944
3.5640969 -1.3730829 3.4829545
5.638216 -2.1699195 4.4825225
4.9585166 -1.9073387 3.2075469
4.8013315 -1.843998 2.4650693
4.2238979 -1.6213859 1.6638212
0.037272267 -0.02617191 3.6991327
3.6098809 -1.4691752 24.775742
3.1128907 -1.2323229 10.75011
4.6502824 -1.8204622 9.2191648
3.1254015 -1.2197282 5.0000801
4.9593835 -1.932525 6.4491773
0.20551139 -0.094766848 3.7531557
2.4888182 -1.044715 25.130764
3.442059 -1.3640621 10.122711
3.5479307 -1.3981801 7.9488878
2.6816196 -1.0529953 4.7825317
3.1390736 -1.2301232 4.5391569
4.0171771 -1.5710278 4.7543783
3.6547649 -1.4168063 3.9317482
4.4857574 -1.7362702 3.9608486
4.9313531 -1.9077636 3.5512588
5.2365527 -2.0237434 3.025233
4.4377251 -1.7141362 2.0103827
4.7126374 -1.8193867 1.5748044
3.5418851 -1.3787432 3.466327
5.5778666 -2.1690776 4.441318
4.9116483 -1.9090185 3.182215
4.7567859 -1.8459687 2.4461868
4.2270179 -1.6395355 1.6671082
0.037180685 -0.026301855 3.6991327
3.606168 -1.482358 24.78562
3.1085701 -1.2431816 10.75011
4.739665 -1.8745614 9.407896
3.1001821 -1.2223725 4.9670167
3.6284149 -1.4284782 4.7453251
0.20544052 -0.095606595 3.7581472
2.4856467 -1.0536044 25.135735
3.4581032 -1.3844073 10.183718
3.6057272 -1.4355197 8.0884266
2.6730788 -1.0604259 4.7739997
3.1067443 -1.2299807 4.4992566
4.0274334 -1.5912697 4.7727542
3.7062471 -1.4516665 3.9913254
4.4651694 -1.7462472 3.9482946
4.9830809 -1.9478 3.5923805
5.3408689 -2.085515 3.0878408
4.3842096 -1.7110757 1.9897792
4.7017889 -1.8340826 1.5733944
3.5995951 -1.4156972 3.526186
5.6041193 -2.2018378 4.4678063
4.953105 -1.9450603 3.2126131
4.712285 -1.8476509 2.4273043
4.2168717 -1.6525574 1.6654646
0.037121069 -0.026460681 3.7041323
3.6031246 -1.4958309 24.80044
3.1042118 -1.2540249 10.75011
3.86672 -1.5511602 9.8746338
4.7330928 -1.8910946 9.407896
3.0096264 -1.1988209 4.8306293
5.5950403 -2.2253451 7.2857533
0.20510554 -0.096323133 3.7581472
2.4819539 -1.0622745 25.135735
3.4628484 -1.4003519 10.211874
3.7299552 -1.5000861 8.3765039
2.6645195 -1.0678098 4.7654681
3.0744538 -1.2296275 4.4593563
4.0124087 -1.6015478 4.7617288
3.7044735 -1.4659071 3.9948301
5.3314619 -2.1065321 4.7046628
4.9412494 -1.9513596 3.5677075
5.2882285 -2.0862629 3.0623338
4.2919555 -1.6923577 1.9523187
3.7507768 -1.4902965 3.6758335
5.5851288 -2.2169127 4.4589772
4.994369 -1.9814144 3.2430112
4.7648797 -1.8874893 2.456677
4.2198591 -1.6707438 1.6687517
0.037028477 -0.026590098 3.7041323
3.599314 -1.5089998 24.810316
3.0998154 -1.264853 10.75011
3.8630929 -1.5653821 9.8792372
4.7309051 -1.9093975 9.4166746
2.9506009 -1.1872585 4.7438374
3.5440004 -1.4238995 4.6493878
0.20476806 -0.0970385 3.7581472
2.478231 -1.0709316 25.135735
3.4419639 -1.405905 10.164947
3.7428477 -1.5204712 8.4170151
2.6583583 -1.0761255 4.7612019
3.0533803 -1.2335792 4.4354167
3.9847848 -1.6066697 4.7360029
3.6960225 -1.4775054 3.9913254
5.3421507 -2.1323442 4.720355
4.9188733 -1.9623981 3.5567417
5.2726836 -2.1014292 3.0576963
4.2774081 -1.7038977 1.9485725
3.7559471 -1.5075527 3.6858103
5.6186242 -2.2529428 4.4913516
4.9794192 -1.9956287 3.2379451
4.7582622 -1.9041103 2.456677
4.2008481 -1.6802028 1.6638212
0.036903217 -0.026689762 3.6991327
3.5947404 -1.5218576 24.815256
3.0967615 -1.2762345 10.754882
3.8576052 -1.5788573 9.8792372
4.7242112 -1.9258997 9.4166746
2.8812659 -1.1710604 4.6405139
3.5390084 -1.4362618 4.6493878
0.20442809 -0.097752683 3.7581472
2.473989 -1.0793625 25.130764
3.4226782 -1.4119878 10.122711
3.7032797 -1.519478 8.3404942
2.6497581 -1.0834242 4.7526703
3.0267367 -1.2351217 4.4034963
4.0325274 -1.6423081 4.7984805
3.6908424 -1.4903979 3.9913254
5.3238459 -2.1466122 4.7109399
4.8383045 -1.9498589 3.5046537
5.1749125 -2.0834246 3.0066826
4.2714343 -1.7188183 1.9485725
3.7610424 -1.524863 3.6957867
5.5357985 -2.2421932 4.4324884
4.8725286 -1.9725568 3.1746156
4.9830132 -2.0142574 2.5720699
4.2168489 -1.7037008 1.6720387
0.036809828 -0.026818413 3.6991327
3.5908351 -1.5350074 24.825134
3.0922875 -1.2870364 10.754882
3.9170666 -1.6191825 10.044928
4.7196746 -1.9432906 9.4210634
2.8693509 -1.1779046 4.6281147
3.557699 -1.4583322 4.6800876
0.20408562 -0.098465674 3.7581472
2.4697185 -1.0877768 25.125792
3.4081712 -1.4199443 10.094555
3.7019756 -1.5340625 8.3494968
2.6411388 -1.090676 4.7441382
3.0586231 -1.2606066 4.4553661
4.0706635 -1.67443 4.8499327
3.6889195 -1.5046191 3.9948301
5.3235297 -2.168119 4.7172165
4.9321628 -2.007726 3.575932
4.2396402 -1.7232442 1.9373344
3.7004125 -1.5153424 3.6425788
5.5241971 -2.2599726 4.4295454
4.8656135 -1.9895532 3.1746156
4.9801536 -2.0333548 2.574168
4.210876 -1.7184101 1.6720387
0.036715992 -0.026946742 3.6991327
3.5861683 -1.5478402 24.830074
3.0905282 -1.2989794 10.764425
3.9149969 -1.6343511 10.054132
2.8392274 -1.1771355 4.5867853
3.5881245 -1.4854549 4.7261376
0.20374067 -0.099177465 3.7581472
2.4654193 -1.0961745 25.120821
3.3936503 -1.4278166 10.066399
3.6986065 -1.5478159 8.3539982
2.6300943 -1.0968767 4.7313404
3.054204 -1.2712756 4.4553661
4.0585327 -1.6860278 4.8425827
3.6803474 -1.5161283 3.9913254
5.3519254 -2.2014959 4.748601
4.8787169 -2.0058496 3.5430343
4.6603327 -1.9141678 2.7237892
4.2335992 -1.7380328 1.9373344
3.6640477 -1.5154065 3.6126492
5.463975 -2.257632 4.388341
4.8506699 -2.0032341 3.169549
4.7254744 -1.9486427 2.4503829
4.3183646 -1.7798848 1.71477
0.036621705 -0.027074739 3.6991327
3.5814559 -1.5606593 24.835014
3.0846014 -1.3091763 10.759654
3.9380713 -1.6601503 10.127772
2.8117404 -1.1772573 4.5495887
3.778091 -1.5795735 4.979413
0.20339324 -0.099888049 3.7581472
2.4610915 -1.1045554 25.115849
3.4283519 -1.4565247 10.183718
3.7272699 -1.5751238 8.4305182
2.6214426 -1.1040261 4.7228084
3.0830817 -1.2959412 4.5032468
4.0338655 -1.6923151 4.8205314
3.6980813 -1.5385553 4.0158572
5.3837476 -2.2365901 4.783124
4.8755469 -2.0244708 3.5457759
4.6536226 -1.9304237 2.7237892
4.261766 -1.7670048 1.9523187
3.6277277 -1.5152354 3.5827196
5.3963771 -2.2517858 4.3412504
4.8754764 -2.0334289 3.1898146
4.7018852 -1.9581465 2.4419906
4.4777884 -1.8639067 1.7772233
0.036526974 -0.027202409 3.6991327
3.5759864 -1.5731515 24.835014
3.0909886 -1.32464 10.79783
3.9484301 -1.6807736 10.169195
4.0971203 -1.7373446 8.2228451
2.817981 -1.1914486 4.5661206
3.8345635 -1.618933 5.0600004
0.20330144 -0.10072673 3.763139
2.4567354 -1.1129194 25.110878
3.4391057 -1.4752866 10.230645
3.7678003 -1.6077769 8.5340462
2.6223729 -1.1152114 4.7313404
3.0840869 -1.3090501 4.5112267
4.0216908 -1.7037407 4.8131814
3.6926882 -1.5514545 4.0158572
5.4117994 -2.2704277 4.8145089
4.8723068 -2.0430942 3.5485172
4.6836271 -1.9620607 2.7446582
4.2598476 -1.7836607 1.9541916
3.6877811 -1.5554601 3.6459041
5.4257321 -2.286305 4.3706822
4.9478054 -2.0839009 3.2404783
4.6950212 -1.9745473 2.4419906
4.4712548 -1.8795257 1.7772233
0.036431793 -0.027329747 3.6991327
3.5704734 -1.5856243 24.835014
3.0918257 -1.3377928 10.816917
3.9820263 -1.7115192 10.270451
4.0998378 -1.7554066 8.2404003
2.826745 -1.2068027 4.5867853
4.0470757 -1.7253277 5.3439755
0.2029486 -0.10143577 3.763139
2.4518664 -1.1210449 25.100935
3.4371018 -1.4886541 10.24003
3.8421354 -1.6553763 8.7140951
2.6184638 -1.1243584 4.7313404
3.1182728 -1.3364263 4.5670872
4.000134 -1.7111018 4.7948055
3.674118 -1.5587635 4.0018392
5.4504333 -2.3090429 4.8553085
4.9498553 -2.0959594 3.6088295
4.7012286 -1.9887528 2.7585711
4.2664061 -1.8039361 1.9598107
3.7819488 -1.6107532 3.7423434
5.51442 -2.3463776 4.4472046
4.7048097 -1.9980199 2.4503829
4.3820782 -1.860065 1.7459967
0.036336172 -0.027456749 3.6991327
3.5649166 -1.5980781 24.835014
3.0980799 -1.3533579 10.855093
3.9616904 -1.7191864 10.23363
4.0980821 -1.7716078 8.2491789
2.9672272 -1.2790451 4.8182302
4.0410285 -1.7394441 5.3439755
0.20259327 -0.10214357 3.763139
2.4474537 -1.1293731 25.095963
3.3891952 -1.4819745 10.113326
3.8463144 -1.6731197 8.7366009
4.8733315 -2.112838 8.7583818
3.9972494 -1.7263988 4.7984805
5.4351821 -2.3249927 4.8490319
5.0270929 -2.1493902 3.6691418
4.6820364 -1.9999307 2.7516148
4.2643461 -1.8206378 1.9616836
3.8106041 -1.6386958 3.7755985
5.6770296 -2.439008 4.5825896
5.7174191 -2.4551842 3.7420475
4.6936355 -2.0126419 2.4482849
4.2844119 -1.8362846 1.711483
0.036208626 -0.027553214 3.6941328
3.5593166 -1.6105123 24.835014
3.0933368 -1.364164 10.855093
3.9807174 -1.7439812 10.298066
4.0962629 -1.7878182 8.2579575
5.2772179 -2.2967174 8.525485
0.20197874 -0.10271812 3.7581472
2.4430137 -1.1376843 25.090992
3.3776865 -1.4910082 10.094555
3.7467711 -1.6453935 8.5250435
4.8683157 -2.130882 8.7626486
3.3629005 -1.4691477 4.9341698
3.9911985 -1.7403413 4.7984805
4.0362902 -1.7457721 4.4013572
5.3698611 -2.3192577 4.7988162
5.0272369 -2.1702394 3.6746247
4.6628242 -2.010999 2.7446582
4.6411133 -2.0006804 2.1302567
3.8322597 -1.6638837 3.8022027
5.8575974 -2.5408435 4.7326908
5.696949 -2.4699824 3.7344482
4.6449323 -2.0109818 2.4273043
4.3039789 -1.8624811 1.721344
0.036112223 -0.027679436 3.6941328
3.5529664 -1.6226038 24.830074
3.0790107 -1.3707035 10.82169
3.8709774 -1.7120308 10.03112
4.0899973 -1.8021059 8.2579575
5.3954077 -2.3705919 8.7279997
3.4916551 -1.5319408 4.6417127
0.2013627 -0.10328964 3.7531557
2.4380627 -1.1457515 25.081047
3.7808075 -1.6761087 8.6150684
4.8536916 -2.1447003 8.7498503
3.3770506 -1.4893893 4.9620996
3.9882019 -1.7556282 4.8021555
4.0824637 -1.7826854 4.4574299
5.2796721 -2.3022046 4.7266316
4.9774661 -2.1693971 3.6444685
4.6760836 -2.0361056 2.7562523
4.6383524 -2.018719 2.1321299
3.7888122 -1.6607617 3.7656221
5.6709709 -2.4834454 4.5914192
4.5962982 -2.009006 2.4063237
4.4142861 -1.9285374 1.7657188
0.036015384 -0.027805323 3.6941328
3.5465753 -1.6346709 24.825134
3.4968789 -1.5919026 18.49543
3.0742073 -1.3814428 10.82169
3.8489223 -1.7183642 9.9896975
2.938237 -1.3032014 4.7934327
3.4950786 -1.548014 4.6532254
0.20100091 -0.1039919 3.7531557
2.4335668 -1.1540265 25.076077
3.3624737 -1.5124284 10.080476
3.7749336 -1.6892959 8.6150684
4.8342667 -2.1563177 8.7285204
3.3883476 -1.508522 4.9860396
3.9882457 -1.7722926 4.8095059
4.0827422 -1.7998021 4.4644389
5.2573538 -2.314347 4.7140779
4.9430723 -2.1749701 3.6252785
4.6770582 -2.0559812 2.76089
4.6822085 -2.0572758 2.1546061
3.5815418 -1.5848328 3.5694177
4.7158747 -2.0848298 3.83797
4.5560393 -2.0103803 2.3895392
4.5414658 -2.0030081 1.8166674
0.035918109 -0.027930873 3.6941328
3.5401428 -1.6467129 24.820194
3.4950011 -1.6057997 18.515009
3.0557725 -1.385999 10.77397
3.7556257 -1.6924561 9.7641735
2.9542167 -1.3226494 4.8264961
3.4779496 -1.5549716 4.6378751
0.20038134 -0.10455821 3.7481639
2.4285622 -1.1620539 25.066133
3.3587451 -1.5248699 10.085169
3.7293353 -1.6845387 8.5250435
4.8314662 -2.1753209 8.7370529
3.9851282 -1.787591 4.8131814
4.0927258 -1.8212924 4.4819617
5.2172318 -2.3184588 4.685832
4.9354506 -2.1922114 3.6252785
4.7103429 -2.0902627 2.7840779
4.6622858 -2.0679681 2.1489871
3.5487151 -1.5851425 3.5428135
4.6901131 -2.0930424 3.8232543
5.3400731 -2.3819911 3.521661
4.6070356 -2.0521255 2.4189122
4.7242589 -2.1033585 1.8889819
0.035820391 -0.02805608 3.6941328
3.5336699 -1.65873 24.815256
3.4967644 -1.6214169 18.554171
3.0427725 -1.3929288 10.745338
3.7461379 -1.7039373 9.7549686
4.5050054 -2.0415721 9.1313839
2.9700961 -1.3422247 4.85956
3.4666574 -1.5644654 4.6301999
0.20001516 -0.10525703 3.7481639
2.4235313 -1.1700605 25.05619
3.339283 -1.5301147 10.042934
4.8238435 -2.1921725 8.7370529
3.5643342 -1.6167858 5.2573614
3.9881289 -1.8056859 4.8242068
4.0961027 -1.8399515 4.4924755
5.2907882 -2.3732965 4.7580166
4.9277678 -2.2094262 3.6252785
4.8121719 -2.1555877 2.8466854
4.6550388 -2.0842299 2.1489871
3.5669866 -1.6082631 3.566092
4.6901493 -2.1127214 3.8291407
5.3002796 -2.3864582 3.5013957
4.6412377 -2.0868061 2.4398925
4.7211947 -2.1217721 1.8906254
0.035722241 -0.028180946 3.6941328
3.5271561 -1.6707221 24.810316
3.5058386 -1.6405185 18.632496
3.7383919 -1.7161882 9.7503662
3.5635064 -1.6299028 7.2484689
2.978194 -1.3584234 4.8802247
3.4757597 -1.5832002 4.6493878
0.19964652 -0.10595457 3.7481639
2.4184735 -1.178046 25.046247
3.3339214 -1.5417616 10.042934
3.749126 -1.7250934 8.5970631
4.832756 -2.2166088 8.7669144
3.5696278 -1.6342353 5.2733216
3.9818017 -1.8195961 4.8242068
4.1221352 -1.8689653 4.5275211
5.3392038 -2.4174378 4.8082318
4.9257097 -2.2271233 2.9162495
4.6477351 -2.1004663 2.1489871
3.544359 -1.6129715 3.5494645
4.6717072 -2.1240611 3.8203113
5.158483 -2.3443043 3.4152675
4.5801992 -2.0786116 2.4126182
4.7395625 -2.1499438 1.9004865
0.035623651 -0.028305465 3.6941328
3.519901 -1.6823539 24.80044
3.5037737 -1.6544857 18.652077
3.7323785 -1.7292273 9.7503662
4.5558767 -2.1030877 9.2630558
2.9811025 -1.3723412 4.8926234
3.4789484 -1.5993396 4.6609001
0.19902152 -0.10651346 3.7431724
2.4129117 -1.1857754 25.031334
3.3285193 -1.5533898 10.042934
4.8202553 -2.2312737 8.7583818
3.5584307 -1.6441578 5.2653418
3.975426 -1.8334841 4.8242068
4.1804423 -1.9130225 4.5976119
5.3094926 -2.4263535 4.7894011
4.6345735 -2.1169491 3.4251513
4.9823856 -2.2737296 2.9533503
4.6361566 -2.1147532 2.147114
4.2037306 -1.9307886 4.2012625
4.6605906 -2.1386697 3.817368
5.1502686 -2.3622966 3.4152675
4.732029 -2.1664748 1.9004865
0.035524629 -0.028429642 3.6941328
