# .PCD v0.7 - Point Cloud Data file format
VERSION 0.7
FIELDS x y z
SIZE 4 4 4
TYPE F F F
COUNT 1 1 1
WIDTH 1430
HEIGHT 1
VIEWPOINT 0 0 0 1 0 0 0
POINTS 1430
DATA ascii
-0.92608845 0.062915236 1.1879587
-0.25048596 0.032453086 4.2073965
-0.47588408 0.044385489 4.4145069
-1.0674266 0.082143411 4.1593862
-1.1075296 0.081594191 3.0741765
-1.0243731 0.073512241 2.1873345
-0.9642629 0.06802953 1.651336
-0.9315024 0.065075077 1.3112274
-0.91770893 0.063479647 1.0755389
-0.9078725 0.060095232 0.97391111
-0.88858563 0.058360599 0.80042273
-0.87840343 0.057542622 0.66175348
-0.88552314 0.057706576 0.55107355
-0.87053812 0.056582231 0.44078106
-0.85242659 0.055260412 0.34102574
-0.88236606 0.056897614 0.25934377
-0.86947918 0.056069091 0.1711676
-0.89758515 0.060677778 0.88241351
-0.88176882 0.059306391 0.72704947
-0.87062234 0.058408782 0.59837258
-0.85699809 0.057051312 0.48450777
-0.85339671 0.056667026 0.38681462
-0.88284749 0.058473535 0.30411482
-0.87941468 0.058248702 0.21513902
-0.87212986 0.057618391 0.12893331
-0.047397356 0.015818994 4.2091131
-0.65333211 0.056290489 4.169158
-0.85293382 0.069602303 4.1377277
-1.2127837 0.093171559 3.9357171
-1.0531186 0.078336693 2.5474155
-0.98447686 0.071864836 1.8762361
-0.94653845 0.068113744 1.466409
-0.92586321 0.066147506 1.1879587
-0.25037113 0.033327244 4.2073965
-0.47572625 0.046046361 4.4145069
-1.0658804 0.08576791 4.1545467
-1.1072381 0.085459694 3.0741765
-1.0241102 0.077087522 2.1873345
-0.96141869 0.071202196 1.6470701
-0.93126953 0.068326227 1.3112274
-0.91748172 0.066682659 1.0755389
-0.90765721 0.06326393 0.97391111
-0.88837647 0.061461985 0.80042273
-0.87819719 0.060608473 0.66175348
-0.88531631 0.060797274 0.55107355
-0.87033528 0.059620634 0.44078106
-0.85222846 0.058235597 0.34102574
-0.87726116 0.059644051 0.25841114
-0.86927813 0.059103802 0.1711676
-0.89736784 0.063810565 0.88241351
-0.88155645 0.062383976 0.72704947
-0.86611301 0.061143756 0.59583938
-0.8567937 0.060042445 0.48450777
-0.8531937 0.059645589 0.38681462
-0.88748688 0.061893102 0.30528715
-0.87920594 0.061318073 0.21513902
-0.86693949 0.060315587 0.12873179
-0.04734185 0.015984347 4.2091131
-0.65313166 0.058570705 4.169158
-0.85167116 0.072492547 4.1328325
-1.213939 0.097524107 3.9404888
-1.0528387 0.082012296 2.5474155
-0.98422003 0.075300865 1.8762361
-0.9462949 0.071417369 1.466409
-0.92562664 0.069378972 1.1879587
-0.24996741 0.03416077 4.202405
-0.47503224 0.04765299 4.4095349
-1.0655745 0.089487992 4.1545467
-1.106933 0.089324161 3.0741765
-1.0216646 0.080490679 2.1828332
-0.9611643 0.074557744 1.6470701
-0.93102533 0.071576551 1.3112274
-0.91724336 0.069884866 1.0755389
-0.90743083 0.066431858 0.97391111
-0.88815653 0.064562619 0.80042273
-0.87798029 0.063673586 0.66175348
-0.8850987 0.063887239 0.55107355
-0.8701219 0.062658302 0.44078106
-0.85202003 0.061210074 0.34102574
-0.8770476 0.062705897 0.25841114
-0.86906654 0.062137786 0.1711676
-0.89713967 0.06694258 0.88241351
-0.88133335 0.065460809 0.72704947
-0.86589432 0.06416668 0.59583938
-0.85657889 0.063032843 0.48450777
-0.85298026 0.062623426 0.38681462
-0.88726538 0.064990632 0.30528715
-0.8789866 0.064386703 0.21513902
-0.86672366 0.063341402 0.12873179
-0.047285765 0.016149504 4.2091131
-0.65292329 0.060850199 4.169158
-0.85039866 0.075374842 4.1279373
-1.2135911 0.10176095 3.9404888
-1.052546 0.085686892 2.5474155
-0.98395115 0.07873597 1.8762361
-0.94323456 0.074498355 1.462276
-0.92537886 0.072609589 1.1879587
-0.24984664 0.035033114 4.202405
-0.47486302 0.049310874 4.4095349
-1.0640036 0.093097232 4.1497078
-1.1048949 0.09304253 3.0694838
-1.0213774 0.084056467 2.1828332
-0.96089816 0.077912375 1.6470701
-0.9337734 0.075067654 1.3152174
-0.91699386 0.07308621 1.0755389
-0.90719342 0.069598973 0.97391111
-0.88792574 0.067662477 0.80042273
-0.87358326 0.066420756 0.65901202
-0.88928747 0.067310877 0.55339235
-0.86989784 0.065695219 0.44078106
-0.85180116 0.064183809 0.34102574
-0.87682337 0.065766983 0.25841114
-0.86884433 0.065171018 0.1711676
-0.89690048 0.070073768 0.88241351
-0.88109946 0.068536833 0.72704947
-0.86566502 0.067188822 0.59583938
-0.8563537 0.066022478 0.48450777
-0.85275644 0.0656005 0.38681462
-0.89187944 0.068459421 0.30645946
-0.87875646 0.067454547 0.21513902
-0.86649734 0.066366449 0.12873179
-0.047268648 0.016332911 4.2141128
-0.65270686 0.063128956 4.169158
-0.85013032 0.078342818 4.1279373
-1.2132285 0.10599655 3.9404888
-1.0522405 0.089360438 2.5474155
-0.98367035 0.082170121 1.8762361
-0.94296879 0.077790394 1.462276
-0.92192519 0.075577244 1.1841213
-0.24943726 0.035862807 4.1974134
-0.47468799 0.050968155 4.4095349
-1.0611684 0.096582443 4.1400285
-1.1045634 0.096898764 3.0694838
-1.0232469 0.087807558 2.1873345
-0.96062034 0.081266068 1.6470701
-0.93350565 0.078326672 1.3152174
-0.91673315 0.076286681 1.0755389
-0.90694493 0.072765253 0.97391111
-0.88768417 0.070761502 0.80042273
-0.87334609 0.069469728 0.65901202
-0.8846311 0.070064783 0.55107355
-0.86966324 0.06873133 0.44078106
-0.85157192 0.067156754 0.34102574
-0.87658846 0.068827271 0.25841114
-0.86861157 0.068203457 0.1711676
-0.89665043 0.073204108 0.88241351
-0.88085485 0.071612023 0.72704947
-0.86542523 0.070210151 0.59583938
-0.85611796 0.069011316 0.48450777
-0.85252231 0.068576783 0.38681462
-0.89163506 0.071572252 0.30645946
-0.87357944 0.070125282 0.21444833
-0.86626035 0.069390677 0.12873179
-0.047211345 0.016497809 4.2141128
-0.65248251 0.065406941 4.169158
-0.84883809 0.081212617 4.1230416
-1.212851 0.11023086 3.9404888
-1.0519222 0.093032889 2.5474155
-0.98337752 0.085603274 1.8762361
-0.9426915 0.081081502 1.462276
-0.92165577 0.078794904 1.1841213
-0.24931054 0.036733288 4.1974134
-0.47397748 0.052565582 4.4045639
-1.0595735 0.10016752 4.1351891
-1.1042184 0.10075382 3.0694838
-1.0229341 0.091378815 2.1873345
-0.96033084 0.084618755 1.6470701
-0.93322659 0.081584744 1.3152174
-0.91646123 0.079486206 1.0755389
-0.90668541 0.075930633 0.97391111
-0.88743174 0.073859669 0.80042273
-0.87309831 0.072517857 0.65901202
-0.88879591 0.073517576 0.55339235
-0.86479783 0.071385123 0.43890804
-0.85611326 0.070522785 0.34243578
-0.87144703 0.071485065 0.25747854
-0.86836815 0.071235061 0.1711676
-0.89638942 0.07633356 0.88241351
-0.88059956 0.074686341 0.72704947
-0.86517489 0.073230624 0.59583938
-0.85587186 0.071999297 0.48450777
-0.8522777 0.071552217 0.38681462
-0.89137977 0.074684195 0.30645946
-0.86839455 0.072760694 0.21375765
-0.86601287 0.07241407 0.12873179
-0.047192886 0.01668123 4.2191129
-0.65225023 0.067684136 4.169158
-0.84854949 0.084175117 4.1230416
-1.2124588 0.11446383 3.9404888
-1.051591 0.096704222 2.5474155
-0.98307276 0.089035384 1.8762361
-0.94240272 0.084371619 1.462276
-0.92137516 0.082011603 1.1841213
-0.24918081 0.037603319 4.1974134
-0.47379112 0.054219753 4.4045639
-1.0567156 0.10361976 4.1255107
-1.10386 0.10460765 3.0694838
-1.0226089 0.09494897 2.1873345
-0.9600296 0.087970421 1.6470701
-0.92993528 0.084568709 1.3112274
-0.91617823 0.082684763 1.0755389
-0.90641481 0.079095095 0.97391111
-0.88716847 0.076956928 0.80042273
-0.87283981 0.075565092 0.65901202
-0.88853383 0.07661961 0.55339235
-0.86454338 0.074403398 0.43890804
-0.85586184 0.073510751 0.34243578
-0.87119222 0.074526548 0.25747854
-0.86811423 0.074265793 0.1711676
-0.89611757 0.079462074 0.88241351
-0.88033342 0.077759758 0.72704947
-0.864914 0.076250196 0.59583938
-0.85561532 0.074986413 0.48450777
-0.85202277 0.074526787 0.38681462
-0.88627154 0.077372462 0.30528715
-0.86813533 0.075791515 0.21375765
-0.86575484 0.075436577 0.12873179
-0.04713437 0.016845863 4.2191129
-0.65123737 0.069877252 4.1642184
-0.84825051 0.087136596 4.1230416
-1.2105665 0.11854975 3.9357171
-1.0512471 0.10037437 2.5474155
-0.9827559 0.092466407 1.8762361
-0.94210243 0.087660693 1.462276
-0.92427486 0.085522816 1.1879587
-0.24876291 0.038427684 4.1924219
-0.47254029 0.055747401 4.3946209
-1.055097 0.10718051 4.1206708
-1.1034881 0.1084602 3.0694838
-1.024438 0.098726988 2.1918356
-0.95971668 0.091321014 1.6470701
-0.92963439 0.087814279 1.3112274
-0.91588402 0.085882321 1.0755389
-0.90613323 0.08225859 0.97391111
-0.88689446 0.080053255 0.80042273
-0.87257069 0.078611411 0.65901202
-0.88826096 0.079720698 0.55339235
-0.85966098 0.077007048 0.43703499
-0.85560006 0.076497816 0.34243578
-0.86603385 0.077131309 0.2565459
-0.86288935 0.076853797 0.17072052
-0.89583474 0.082589626 0.88241351
-0.88005662 0.080832221 0.72704947
-0.8646425 0.079268843 0.59583938
-0.85986805 0.078384727 0.48660582
-0.85175747 0.077500448 0.38681462
-0.88599604 0.080465652 0.30528715
-0.86293364 0.078373447 0.21306697
-0.86548626 0.078458168 0.12873179
-0.047075279 0.01701029 4.2191129
-0.65098953 0.072150066 4.1642184
-0.84794116 0.09009701 4.1230416
-1.2086602 0.12262385 3.9309452
-1.0508903 0.1040433 2.5474155
-0.98242724 0.095896296 1.8762361
-0.94179076 0.090948716 1.462276
-0.9239707 0.088748619 1.1879587
-0.24834226 0.039249588 4.1874299
-0.46916822 0.057007864 4.3647919
-1.0534662 0.11073122 4.1158314
-1.1031028 0.11231143 3.0694838
-1.0240872 0.10230234 2.1918356
-0.95939207 0.094670497 1.6470701
-0.92932218 0.091058768 1.3112274
-0.91557866 0.089078836 1.0755389
-0.90584058 0.085421085 0.97391111
-0.88660961 0.083148606 0.80042273
-0.87229103 0.081656769 0.65901202
-0.88356662 0.08240933 0.55107355
-0.85938692 0.080007352 0.43703499
-0.86010426 0.079927899 0.34384581
-0.86575937 0.080153853 0.2565459
-0.86261588 0.079865374 0.17072052
-0.89554095 0.085716173 0.88241351
-0.88379282 0.084287591 0.72999263
-0.86436057 0.082286529 0.59583938
-0.85958922 0.081385754 0.48660582
-0.85148168 0.080473162 0.38681462
-0.88570976 0.083557867 0.30528715
-0.86265481 0.081385173 0.21306697
-0.86023313 0.081010379 0.12853025
-0.046976402 0.017155375 4.2141128
-0.64918989 0.074244753 4.1543403
-0.8476215 0.093056329 4.1230416
-1.2082248 0.12684211 3.9309452
-1.0505207 0.10771095 2.5474155
-0.98208642 0.099325024 1.8762361
-0.94146752 0.094235629 1.462276
-0.92365527 0.091973335 1.1879587
-0.24820375 0.040116221 4.1874299
-0.4652642 0.058178842 4.3299909
-1.0518239 0.11427188 4.1109924
-1.102704 0.11616129 3.0694838
-1.0237238 0.10587645 2.1918356
-0.95905578 0.098018825 1.6470701
-0.92899871 0.094302163 1.3112274
-0.91188902 0.09193401 1.0718638
-0.90553689 0.088582538 0.97391111
-0.88631397 0.086242951 0.80042273
-0.87200069 0.084701136 0.65901202
-0.8876828 0.085919939 0.55339235
-0.85910243 0.083006687 0.43703499
-0.85981995 0.08292973 0.34384581
-0.87036407 0.083645403 0.25747854
-0.85737473 0.08239954 0.17027344
-0.89523631 0.088841669 0.88241351
-0.88349324 0.087372087 0.72999263
-0.85977817 0.084879555 0.59330624
-0.8592999 0.084385782 0.48660582
-0.85119563 0.083444893 0.38681462
-0.88541269 0.08664906 0.30528715
-0.86236542 0.084395908 0.21306697
-0.85994512 0.084012657 0.12853025
-0.046916232 0.017319249 4.2141128
-0.64815515 0.07641907 4.1494007
-0.84729153 0.096014515 4.1230416
-1.2092587 0.13122004 3.9357171
-1.0501384 0.1113773 2.5474155
-0.9817338 0.10275254 1.8762361
-0.94113284 0.097521387 1.462276
-0.92332858 0.095196933 1.1879587
-0.24806221 0.040982373 4.1874299
-0.46082917 0.059254792 4.2902193
-1.0501693 0.11780239 4.106153
-1.1022918 0.12000974 3.0694838
-1.023348 0.10944927 2.1918356
-0.95870775 0.10136595 1.6470701
-0.92866385 0.097544394 1.3112274
-0.91156256 0.095116533 1.0718638
-0.90522212 0.09174291 0.97391111
-0.88600755 0.089336239 0.80042273
-0.87169969 0.087744474 0.65901202
-0.88737744 0.089018002 0.55339235
-0.85880744 0.08600501 0.43703499
-0.85952526 0.085930556 0.34384581
-0.87006676 0.086683027 0.25747854
-0.85708183 0.085391834 0.17027344
-0.89492071 0.091966085 0.88241351
-0.88318288 0.090455525 0.72999263
-0.85947663 0.087880224 0.59330624
-0.85900015 0.087384783 0.48660582
-0.85089916 0.086415619 0.38681462
-0.88510478 0.089739196 0.30528715
-0.86206555 0.0874056 0.21306697
-0.85964662 0.087013915 0.12853025
-0.046855491 0.017482912 4.2141128
-0.64711314 0.078587063 4.1444616
-0.84695119 0.098971531 4.1230416
-1.2087933 0.13544035 3.9357171
-1.0497432 0.11504229 2.5474155
-0.98136914 0.10617881 1.8762361
-0.94078666 0.10080595 1.462276
-0.91980356 0.098079331 1.1841213
-0.24791764 0.041848022 4.1874299
-0.45533556 0.060159877 4.2405043
-1.0485032 0.12132276 4.1013131
-1.1018662 0.12385673 3.0694838
-1.0229597 0.11302075 2.1918356
-0.9583481 0.10471185 1.6470701
-0.92831773 0.10078544 1.3112274
-0.91122502 0.098297901 1.0718638
-0.90489638 0.094902173 0.97391111
-0.88569033 0.092428431 0.80042273
-0.87138814 0.090786733 0.65901202
-0.8870613 0.092114992 0.55339235
-0.85850197 0.089002281 0.43703499
-0.85922009 0.088930339 0.34384581
-0.87464517 0.090223692 0.25841114
-0.85182488 0.087872051 0.16982636
-0.89459425 0.095089383 0.88241351
-0.88286173 0.09353786 0.72999263
-0.8591646 0.09087982 0.59330624
-0.85868984 0.090382725 0.48660582
-0.85528862 0.089878887 0.38845813
-0.88478619 0.092828244 0.30528715
-0.86668032 0.090931021 0.21375765
-0.85933769 0.090014108 0.12853025
-0.046755165 0.017626816 4.2091131
-0.64606392 0.080748715 4.1395221
-0.84761143 0.10204931 4.1279373
-1.2097958 0.13983054 3.9404888
-1.0493352 0.11870587 2.5474155
-0.9809925 0.10960377 1.8762361
-0.94322604 0.10439908 1.466409
-0.91945559 0.10128944 1.1841213
-0.24777006 0.042713162 4.1874299
-0.45248201 0.061388131 4.2156467
-1.0468251 0.12483292 4.0964737
-1.1014271 0.12770221 3.0694838
-1.0203961 0.11634405 2.1873345
-0.95797676 0.10805647 1.6470701
-0.93095469 0.10436115 1.3152174
-0.91087633 0.10147808 1.0718638
-0.90455961 0.098060273 0.97391111
-0.88536227 0.095519505 0.80042273
-0.87106586 0.093827896 0.65901202
-0.88673437 0.09521085 0.55339235
-0.86279559 0.092492707 0.43890804
-0.85890442 0.091929033 0.34384581
-0.87432492 0.093276225 0.25841114
-0.85151297 0.090844937 0.16982636
-0.89425683 0.098211519 0.88241351
-0.88252985 0.096619055 0.72999263
-0.86312741 0.094346866 0.59583938
-0.85836911 0.093379565 0.48660582
-0.85496974 0.09286385 0.38845813
-0.88445675 0.095916159 0.30528715
-0.86635768 0.093955748 0.21375765
-0.85901821 0.093013212 0.12853025
-0.046693351 0.017789915 4.2091131
-0.64577812 0.083003409 4.1395221
-0.84725004 0.1050074 4.1279373
-1.2093004 0.14405268 3.9404888
-1.0489144 0.12236802 2.5474155
-0.98060393 0.11302741 1.8762361
-0.94285589 0.10769092 1.466409
-0.91909641 0.10449832 1.1841213
-0.24790357 0.04362895 4.1924219
-0.45015341 0.062671207 4.1957607
-1.0451355 0.12833287 4.0916348
-1.1009747 0.13154612 3.0694838
-1.0199839 0.11990519 2.1873345
-0.95759368 0.11139977 1.6470701
-0.93058479 0.10761014 1.3152174
-0.91388458 0.10504431 1.0755389
-0.90775585 0.10161408 0.97741568
-0.88889182 0.09904059 0.80356121
-0.86657733 0.096405447 0.65627056
-0.88639665 0.098305553 0.55339235
-0.86246747 0.095503867 0.43890804
-0.85857826 0.094926611 0.34384581
-0.87887669 0.096865803 0.25934377
-0.84624064 0.093271106 0.16937928
-0.89390862 0.10133246 0.88241351
-0.88218719 0.099699073 0.72999263
-0.86279285 0.097359166 0.59583938
-0.85803795 0.096375257 0.48660582
-0.85464031 0.095847689 0.38845813
-0.88411653 0.099002898 0.30528715
-0.86602437 0.09697932 0.21375765
-0.85868829 0.096011177 0.12853025
-0.046630967 0.017952796 4.2091131
-0.64548445 0.085257091 4.1395221
-0.84788841 0.10809325 4.1328325
-1.2087902 0.14827305 3.9404888
-1.0484809 0.12602866 2.5474155
-0.98020339 0.11644967 1.8762361
-0.94247419 0.11098143 1.466409
-0.92190945 0.10807934 1.1879587
-0.24774976 0.044494029 4.1924219
-0.44887662 0.064090453 4.1858177
-1.0434341 0.13182253 4.0867953
-1.1005088 0.13538845 3.0694838
-1.019559 0.12346486 2.1873345
-0.95719904 0.11474173 1.6470701
-0.93020344 0.11085784 1.3152174
-0.91351235 0.10823373 1.0755389
-0.90739566 0.10478212 0.97741568
-0.88854069 0.1021428 0.80356121
-0.86623555 0.099429779 0.65627056
-0.88604808 0.10139906 0.55339235
-0.86212885 0.098513857 0.43890804
-0.86300784 0.098466903 0.34525582
-0.87853318 0.099933065 0.25934377
-0.84590995 0.096224472 0.16937928
-0.89725792 0.10488584 0.88573903
-0.88183379 0.10277786 0.72999263
-0.86672962 0.10086875 0.59837258
-0.85769629 0.099369779 0.48660582
-0.85430056 0.09883035 0.38845813
-0.88376558 0.10208844 0.30528715
-0.86568058 0.10000172 0.21375765
-0.85834795 0.099007972 0.12853025
-0.046568017 0.018115459 4.2091131
-0.64595282 0.087614514 4.1444616
-0.84750587 0.11105227 4.1328325
-1.2082653 0.1524916 3.9404888
-1.0480345 0.12968777 2.5474155
-0.97979099 0.11987051 1.8762361
-0.94208109 0.11427061 1.466409
-0.92152655 0.11129674 1.1879587
-0.24759294 0.045358568 4.1924219
-0.44759545 0.065501571 4.1758747
-1.0429676 0.13546398 4.0867953
-1.1000295 0.1392291 3.0694838
-1.0191219 0.12702304 2.1873345
-0.95938104 0.11840191 1.651336
-0.92981082 0.11410418 1.3152174
-0.91312897 0.11142182 1.0755389
-0.90702432 0.10794888 0.97741568
-0.88817871 0.10524376 0.80356121
-0.86588317 0.1024529 0.65627056
-0.88568866 0.10449132 0.55339235
-0.86177969 0.10152265 0.43890804
-0.86742306 0.10203927 0.34666586
-0.87817901 0.10299911 0.25934377
-0.85051495 0.099756815 0.16982636
-0.89688635 0.10801721 0.88573903
-0.88146967 0.10585541 0.72999263
-0.86637229 0.10389359 0.59837258
-0.85734421 0.10236309 0.48660582
-0.85395038 0.10181182 0.38845813
-0.87857729 0.10459806 0.30411482
-0.86532623 0.1030229 0.21375765
-0.85303611 0.10141376 0.12832873
-0.046504498 0.018277902 4.2091131
-0.64564306 0.089868777 4.1444616
-0.84812218 0.11414602 4.1377277
-1.2077255 0.1567083 3.9404888
-1.0475755 0.13334532 2.5474155
-0.9793666 0.12328989 1.8762361
-0.9416765 0.11755839 1.466409
-0.92113245 0.11451279 1.1879587
-0.24743311 0.046222549 4.1924219
-0.44683698 0.066984043 4.1709032
-1.0412425 0.13893734 4.0819554
-1.0995368 0.14306808 3.0694838
-1.0186722 0.13057967 2.1873345
-0.9589619 0.12175005 1.651336
-0.92641735 0.11697147 1.3112274
-0.91273445 0.11460856 1.0755389
-0.90664202 0.11111434 0.97741568
-0.88780594 0.10834344 0.80356121
-0.86552024 0.10547477 0.65627056
-0.88092113 0.10704783 0.55107355
-0.86142009 0.1045302 0.43890804
-0.86706156 0.10506652 0.34666586
-0.87781411 0.1060639 0.25934377
-0.85016155 0.10272506 0.16982636
-0.89650381 0.11114728 0.88573903
-0.88109481 0.10893167 0.72999263
-0.86600435 0.10691716 0.59837258
-0.85698164 0.10535516 0.48660582
-0.85358977 0.10479204 0.38845813
-0.87820685 0.10766423 0.30411482
-0.86987662 0.10664548 0.21444833
-0.85267687 0.10439079 0.12832873
-0.046440415 0.018440122 4.2091131
-0.64532542 0.092121936 4.1444616
-0.84771854 0.11710583 4.1377277
-1.2056917 0.1607257 3.9357171
-1.0471036 0.13700122 2.5474155
-0.98130536 0.12701538 1.8806251
-0.94126034 0.12084474 1.466409
-0.92072707 0.11772744 1.1879587
-0.24727026 0.047085971 4.1924219
-0.44607365 0.068462022 4.1659317
-1.039506 0.14240031 4.077116
-1.0990307 0.1469053 3.0694838
-1.0182103 0.13413469 2.1873345
-0.95853102 0.12509672 1.651336
-0.9260034 0.12020455 1.3112274
-0.91232884 0.1177939 1.0755389
-0.90624869 0.11427844 0.97741568
-0.88742232 0.1114418 0.80356121
-0.86514682 0.10849535 0.65627056
-0.88054204 0.11012217 0.55107355
-0.86105001 0.10753648 0.43890804
-0.8666895 0.10809249 0.34666586
-0.87743855 0.1091274 0.25934377
-0.85473967 0.10630672 0.17027344
-0.89611036 0.11427598 0.88573903
-0.88070917 0.11200661 0.72999263
-0.86562586 0.10993942 0.59837258
-0.85660869 0.10834594 0.48660582
-0.85321879 0.10777099 0.38845813
-0.87300324 0.11012074 0.30294251
-0.86949909 0.10968127 0.21444833
-0.84735054 0.10674213 0.12812719
-0.046375763 0.018602118 4.2091131
-0.64499992 0.094373986 4.1444616
-0.84831262 0.12020729 4.1426225
-1.2051233 0.16493337 3.9357171
-1.0485553 0.14091586 2.5520179
-0.980856 0.13044001 1.8806251
-0.94083279 0.12412962 1.466409
-0.92031056 0.12094066 1.1879587
-0.24710438 0.047948819 4.1924219
-0.44583195 0.070018694 4.1659317
-1.0377579 0.14585283 4.0722771
-1.1002208 0.15097554 3.0741765
-1.0177358 0.1376881 2.1873345
-0.95808852 0.12844186 1.651336
-0.92557818 0.12343618 1.3112274
-0.91191208 0.1209778 1.0755389
-0.90230757 0.11698243 0.97391111
-0.88702792 0.11453881 0.80356121
-0.86476284 0.11151462 0.65627056
-0.87575871 0.11262999 0.54875475
-0.86066931 0.11054146 0.43890804
-0.87106502 0.11172751 0.3480759
-0.87705225 0.11218957 0.25934377
-0.85930312 0.10992159 0.17072052
-0.89200395 0.11691789 0.88241351
-0.88031286 0.11508018 0.72999263
-0.86523682 0.11296035 0.59837258
-0.85622525 0.1113354 0.48660582
-0.85283738 0.11074862 0.38845813
-0.87261349 0.11316741 0.30294251
-0.87402183 0.11335266 0.21513902
-0.84697282 0.10969927 0.12812719
-0.046310548 0.018763885 4.2091131
-0.64466661 0.096624881 4.1444616
-0.84788781 0.12316773 4.1426225
-1.2060183 0.16934676 3.9404888
-1.048057 0.14457515 2.5520179
-0.98276764 0.13418725 1.8850143
-0.94039381 0.12741297 1.466409
-0.91988277 0.12415241 1.1879587
-0.2469355 0.048811082 4.1924219
-0.44558483 0.071574502 4.1659317
-1.0359983 0.14929491 4.0674376
-1.0996871 0.15481512 3.0741765
-1.017249 0.14123982 2.1873345
-0.95505071 0.13142967 1.6470701
-0.92514169 0.12666629 1.3112274
-0.91148424 0.12416022 1.0755389
-0.90189373 0.12013135 0.97391111
-0.88662267 0.11763442 0.80356121
-0.86436826 0.11453253 0.65627056
-0.87536025 0.11568627 0.54875475
-0.85568219 0.11293836 0.43703499
-0.87066972 0.11476741 0.3480759
-0.87178499 0.11461004 0.25841114
-0.8589142 0.11292044 0.17072052
-0.89159042 0.12003084 0.88241351
-0.87990582 0.11815234 0.72999263
-0.86483723 0.1159799 0.59837258
-0.85583144 0.11432351 0.48660582
-0.8524456 0.1137249 0.38845813
-0.87221318 0.11621271 0.30294251
-0.87362081 0.11640287 0.21513902
-0.84658468 0.1126551 0.12812719
-0.046244767 0.018925425 4.2091131
-0.64355743 0.098756403 4.1395221
-0.8484599 0.12627681 4.1475182
-1.2054199 0.17355552 3.9404888
-1.0475459 0.14823267 2.5520179
-0.98229325 0.13761693 1.8850143
-0.93994325 0.13069479 1.466409
-0.91944385 0.12736264 1.1879587
-0.24676362 0.049672753 4.1924219
-0.44480634 0.073042572 4.1609597
-1.0342274 0.15272646 4.0625978
-1.09914 0.1586528 3.0741765
-1.0167497 0.14478981 2.1873345
-0.95458609 0.13476261 1.6470701
-0.92469388 0.12989488 1.3112274
-0.91104531 0.12734115 1.0755389
-0.90146893 0.12327883 0.97391111
-0.88620669 0.12072858 0.80356121
-0.86396325 0.11754904 0.65627056
-0.87495106 0.11874114 0.54875475
-0.85528278 0.11592455 0.43703499
-0.87026381 0.11780592 0.3480759
-0.87137961 0.11765244 0.25841114
-0.86344993 0.11658432 0.1711676
-0.89116597 0.12314235 0.88241351
-0.87948799 0.12122305 0.72999263
-0.86869764 0.11958607 0.60090578
-0.85542715 0.11731022 0.48660582
-0.85204345 0.1166998 0.38845813
-0.87180221 0.1192566 0.30294251
-0.87320924 0.11945168 0.21513902
-0.84618628 0.11560955 0.12812719
-0.046178423 0.019086733 4.2091131
-0.64320874 0.10100223 4.1395221
-0.84902048 0.12939139 4.1524134
-1.2048067 0.17776215 3.9404888
-1.0489556 0.15216905 2.5566204
-0.97943628 0.14070415 1.8806251
-0.93948138 0.13397501 1.466409
-0.91899359 0.13057134 1.1879587
-0.24658872 0.050533816 4.1924219
-0.44454864 0.074594788 4.1609597
-1.0336878 0.15633565 4.0625978
-1.0985795 0.16248855 3.0741765
-1.014084 0.14802343 2.1828332
-0.95410991 0.13809392 1.6470701
-0.92423487 0.13312186 1.3112274
-0.91059524 0.13052052 1.0755389
-0.9010331 0.12642479 0.97391111
-0.88577992 0.1238213 0.80356121
-0.86354768 0.12056412 0.65627056
-0.87453127 0.12179457 0.54875475
-0.85487288 0.11890935 0.43703499
-0.8698473 0.12084299 0.3480759
-0.87096363 0.12069341 0.25841114
-0.86303777 0.11959761 0.1711676
-0.89442748 0.1267765 0.88573903
-0.87905949 0.12429231 0.72999263
-0.86827487 0.12261765 0.60090578
-0.85501248 0.1202955 0.48660582
-0.85163087 0.11967328 0.38845813
-0.87138063 0.12229902 0.30294251
-0.87769091 0.12318736 0.21582969
-0.84577757 0.11856259 0.12812719
-0.046111517 0.019247811 4.2091131
-0.64208508 0.10312327 4.134583
-0.84856367 0.13235424 4.1524134
-1.2041789 0.18196663 3.9404888
-1.0484179 0.15582967 2.5566204
-0.97893912 0.14412218 1.8806251
-0.939008 0.13725358 1.466409
-0.91853225 0.13377842 1.1879587
-0.24641083 0.051394261 4.1924219
-0.44376028 0.076055557 4.1559887
-1.0318937 0.15975043 4.0577583
-1.0980057 0.16632232 3.0741765
-1.0135611 0.15156233 2.1828332
-0.95362204 0.14142355 1.6470701
-0.92376453 0.13634723 1.3112274
-0.91013414 0.1336983 1.0755389
-0.90411615 0.13007724 0.97741568
-0.88534224 0.12691249 0.80356121
-0.86312157 0.12357772 0.65627056
-0.8741008 0.12484651 0.54875475
-0.85445261 0.12189269 0.43703499
-0.86942017 0.12387858 0.3480759
-0.87053698 0.1237329 0.25841114
-0.86261499 0.12260944 0.1711676
-0.89397949 0.12989786 0.88573903
-0.87462014 0.12678005 0.72704947
-0.8678416 0.12564775 0.60090578
-0.85458732 0.12327933 0.48660582
-0.85120797 0.1226453 0.38845813
-0.87575948 0.1260324 0.30411482
-0.87725556 0.12625031 0.21582969
-0.85030371 0.12222501 0.12832873
-0.046005819 0.019387627 4.2041135
-0.64095467 0.10523772 4.1296439
-0.84910196 0.13547616 4.1573086
-1.2020613 0.18594055 3.9357171
-1.0478677 0.15948838 2.5566204
-0.97843009 0.14753844 1.8806251
-0.93852311 0.1405305 1.466409
-0.91805971 0.13698389 1.1879587
-0.24594776 0.052193027 4.1874299
-0.44296709 0.077511728 4.1510172
-1.0300883 0.16315459 4.0529189
-1.0974183 0.17015405 3.0741765
-1.0130259 0.15509941 2.1828332
-0.95570099 0.14514324 1.651336
-0.92328298 0.13957095 1.3112274
-0.90966183 0.13687444 1.0755389
-0.9036566 0.1332324 0.97741568
-0.88489383 0.13000214 0.80356121
-0.86268491 0.12658982 0.65627056
-0.87804276 0.1285387 0.55107355
-0.85860908 0.12554537 0.43890804
-0.87372911 0.12760599 0.34948593
-0.87496078 0.12747915 0.25934377
-0.85725385 0.12490176 0.17072052
-0.89352065 0.13301763 0.88573903
-0.87417227 0.12983227 0.72704947
-0.86739773 0.12867633 0.60090578
-0.85415179 0.12626164 0.48660582
-0.85544622 0.12630564 0.39010164
-0.87531418 0.1290886 0.30411482
-0.87680954 0.12931174 0.21582969
-0.84987187 0.12519239 0.12832873
-0.045937866 0.019548099 4.2041135
-0.6405834 0.10747443 4.1296439
-0.84962869 0.13860343 4.1622038
-1.2014049 0.19013539 3.9357171
-1.0473045 0.16314515 2.5566204
-0.97790915 0.15095291 1.8806251
-0.93802691 0.1438057 1.466409
-0.92074436 0.14067194 1.1917962
-0.24576408 0.053051226 4.1874299
-0.44269383 0.079057492 4.1510172
-1.0295125 0.16674927 4.0529189
-1.0968177 0.17398372 3.0741765
-1.0124784 0.15863457 2.1828332
-0.95518851 0.14847837 1.651336
-0.92279011 0.14279296 1.3112274
-0.90917856 0.14004892 1.0755389
-0.90318602 0.13638595 0.97741568
-0.88443464 0.1330902 0.80356121
-0.86223781 0.12960039 0.65627056
-0.87758869 0.13160285 0.55107355
-0.85816556 0.12854171 0.43890804
-0.87327838 0.13065509 0.34948593
-0.87451047 0.13053256 0.25934377
-0.85681266 0.12789337 0.17072052
-0.89305085 0.1361358 0.88573903
-0.87371373 0.13288291 0.72704947
-0.86694324 0.13170332 0.60090578
-0.85370582 0.12924242 0.48660582
-0.85500014 0.12929094 0.39010164
-0.87485826 0.13214323 0.30411482
-0.87635279 0.13237159 0.21582969
-0.84942967 0.12815823 0.12832873
-0.045869347 0.019708334 4.2041135
-0.63943851 0.10957823 4.1247044
-0.85014403 0.14173606 4.167099
-1.1992604 0.19408926 3.9309452
-1.0447993 0.16649228 2.5520179
-0.97737622 0.15436552 1.8806251
-0.93751919 0.14707915 1.466409
-0.92024773 0.14388509 1.1917962
-0.24557739 0.05390878 4.1874299
-0.44189081 0.080506258 4.1460457
-1.0276843 0.17013642 4.04808
-1.0962037 0.17781126 3.0741765
-1.0119185 0.1621678 2.1828332
-0.95466447 0.1518117 1.651336
-0.92526221 0.1464846 1.3152174
-0.90868413 0.14322169 1.0755389
-0.90270448 0.13953783 0.97741568
-0.88396472 0.13617663 0.80356121
-0.86178017 0.13260938 0.65627056
-0.87712401 0.1346654 0.55107355
-0.85771167 0.13153648 0.43890804
-0.87281698 0.13370261 0.34948593
-0.87404943 0.13358438 0.25934377
-0.85636097 0.13088343 0.17072052
-0.8925702 0.13925231 0.88573903
-0.87324458 0.13593192 0.72704947
-0.86647826 0.13472871 0.60090578
-0.8577345 0.13291673 0.48870388
-0.85921007 0.13299708 0.39174515
-0.87919521 0.13593902 0.30528715
-0.87588543 0.13542983 0.21582969
-0.84897715 0.13112251 0.12832873
-0.045800272 0.019868327 4.2041135
-0.63828683 0.11167536 4.1197653
-0.85064781 0.14487396 4.1719942
-1.1985755 0.19827427 3.9309452
-1.0442117 0.1701383 2.5520179
-0.97919583 0.15815835 1.8850143
-0.93977851 0.15079683 1.470542
-0.91973984 0.14709647 1.1917962
-0.24538772 0.054765675 4.1874299
-0.44160709 0.082048252 4.1460457
-1.0270841 0.17372268 4.04808
-1.0955764 0.18163665 3.0741765
-1.0113462 0.16569909 2.1828332
-0.95670289 0.15556195 1.6556019
-0.92474526 0.14971347 1.3152174
-0.90817863 0.1463927 1.0755389
-0.9022119 0.14268801 0.97741568
-0.8873288 0.13986763 0.80669963
-0.86544251 0.13626724 0.65901202
-0.88102472 0.13841395 0.55339235
-0.85724729 0.13452965 0.43890804
-0.86760581 0.13600551 0.3480759
-0.87357783 0.13663457 0.25934377
-0.86081904 0.13464148 0.1711676
-0.8920787 0.14236709 0.88573903
-0.87675643 0.13961509 0.72999263
-0.86600268 0.13775247 0.60090578
-0.85726535 0.13590997 0.48870388
-0.85874063 0.13599546 0.39174515
-0.8787154 0.13900715 0.30528715
-0.87540734 0.13848642 0.21582969
-0.84851426 0.13408519 0.12832873
-0.045730643 0.020028079 4.2041135
-0.63789308 0.11390271 4.1197653
-0.85013694 0.14784239 4.1719942
-1.1978762 0.20245688 3.9309452
-1.0436115 0.17378223 2.5520179
-0.97863775 0.16157542 1.8850143
-0.93924636 0.15407637 1.470542
-0.91922081 0.15030606 1.1917962
-0.24547634 0.055686895 4.1924219
-0.44131801 0.083589248 4.1460457
-1.0252328 0.17709264 4.0432405
-1.0949357 0.18545982 3.0741765
-1.0107616 0.16922833 2.1828332
-0.95615405 0.15890053 1.6556019
-0.92421699 0.15294053 1.3152174
-0.90766209 0.14956196 1.0755389
-0.9017083 0.14583644 0.97741568
-0.88683516 0.14296412 0.80669963
-0.86496156 0.13928738 0.65901202
-0.88053614 0.14148846 0.55339235
-0.85677248 0.13752118 0.43890804
-0.86712581 0.13903318 0.3480759
-0.87309557 0.13968308 0.25934377
-0.86034381 0.13764547 0.1711676
-0.89157629 0.14548017 0.88573903
-0.87626368 0.14267468 0.72999263
-0.86551654 0.14077455 0.60090578
-0.85678566 0.13890156 0.48870388
-0.86292213 0.13974719 0.39338866
-0.87822473 0.1420736 0.30528715
-0.87491858 0.1415413 0.21582969
-0.84804106 0.13704623 0.12832873
-0.045698307 0.020209275 4.2091131
-0.63672721 0.11598909 4.1148257
-0.85061818 0.15098724 4.1768894
-1.1971622 0.20663701 3.9309452
-1.0429986 0.17742406 2.5520179
-0.97806782 0.16499051 1.8850143
-0.93870282 0.157354 1.470542
-0.9186905 0.15351382 1.1917962
-0.24528046 0.056543432 4.1924219
-0.44102353 0.085129224 4.1460457
-1.0233706 0.18045181 4.0384007
-1.0959821 0.18957505 3.0788693
-1.0101649 0.17275551 2.1828332
-0.95559353 0.16223715 1.6556019
-0.92664862 0.15666823 1.3192074
-0.90713453 0.15272938 1.0755389
-0.90119374 0.14898309 0.97741568
-0.88633066 0.1460589 0.80669963
-0.86447006 0.14230581 0.65901202
-0.87566572 0.14384308 0.55107355
-0.85628718 0.14051104 0.43890804
-0.86663514 0.14205919 0.3480759
-0.87260264 0.14272991 0.25934377
-0.8598581 0.1406478 0.1711676
-0.89106303 0.14859147 0.88573903
-0.87576038 0.14573255 0.72999263
-0.86501986 0.14379491 0.60090578
-0.85629559 0.14189145 0.48870388
-0.86242902 0.1427585 0.39338866
-0.87772346 0.14513831 0.30528715
-0.87441915 0.14459448 0.21582969
-0.84262836 0.13919137 0.12812719
-0.045627486 0.020368671 4.2091131
-0.6363185 0.11821097 4.1148257
-0.85108781 0.15413722 4.1817846
-1.1964335 0.21081463 3.9309452
-1.0423729 0.18106374 2.5520179
-0.979846 0.16881043 1.8894032
-0.93814784 0.16062973 1.470542
-0.91814905 0.15671973 1.1917962
-0.24508159 0.057399273 4.1924219
-0.44072369 0.086668171 4.1460457
-1.0214972 0.18380012 4.0335612
-1.0953137 0.19339959 3.0788693
-1.0117002 0.17665526 2.1873345
-0.95502144 0.16557181 1.6556019
-0.92609602 0.15990187 1.3192074
-0.90993696 0.15646963 1.0792141
-0.90066826 0.15212794 0.97741568
-0.88581544 0.14915188 0.80669963
-0.86396807 0.1453225 0.65901202
-0.87515831 0.14689884 0.55107355
-0.85579151 0.14349918 0.43890804
-0.86613399 0.14508343 0.3480759
-0.87694412 0.1465849 0.26027638
-0.85936189 0.1436484 0.1711676
-0.89053893 0.15170096 0.88573903
-0.87524635 0.14878863 0.72999263
-0.86451268 0.14681351 0.60090578
-0.85579509 0.14487962 0.48870388
-0.86192548 0.14576806 0.39338866
-0.87721151 0.14820124 0.30528715
-0.86902624 0.14682089 0.21513902
-0.84213734 0.14213185 0.12812719
-0.045556109 0.020527815 4.2091131
-0.63590199 0.12043142 4.1148257
-0.85054457 0.15710713 4.1817846
-1.1956904 0.21498968 3.9309452
-1.0436583 0.18504246 2.5566204
-0.97925085 0.17222969 1.8894032
-0.93758142 0.1639035 1.470542
-0.9175964 0.1599237 1.1917962
-0.24487974 0.058254417 4.1924219
-0.4398959 0.088100873 4.1410737
-1.0208495 0.18736468 4.0335612
-1.0963302 0.19752795 3.0835621
-1.0110773 0.18018568 2.1873345
-0.95443767 0.16890444 1.6556019
-0.92553228 0.16313359 1.3192074
-0.9093852 0.15964496 1.0792141
-0.90013176 0.15527093 0.97741568
-0.88145345 0.15158321 0.80356121
-0.86345553 0.14833742 0.65901202
-0.87464017 0.14995281 0.55107355
-0.85528535 0.14648558 0.43890804
-0.86562234 0.14810592 0.3480759
-0.87642711 0.14964512 0.26027638
-0.85885519 0.14664726 0.1711676
-0.89000398 0.15480858 0.88573903
-0.87472159 0.15184291 0.72999263
-0.86824232 0.15056704 0.60343897
-0.85528415 0.14786603 0.48870388
-0.86141139 0.14877586 0.39338866
-0.8766889 0.15126239 0.30528715
-0.86850846 0.14985347 0.21513902
-0.84163612 0.1450706 0.12812719
-0.045484174 0.02068671 4.2091131
-0.63547772 0.1226504 4.1148257
-0.84999096 0.16007514 4.1817846
-1.1949326 0.21916211 3.9309452
-1.0430059 0.18868439 2.5566204
-0.97864366 0.17564687 1.8894032
-0.93700361 0.16717528 1.470542
-0.9170326 0.16312574 1.1917962
-0.24439456 0.059039943 4.1874299
-0.43958569 0.089635856 4.1410737
-1.0189539 0.19069557 4.0287223
-1.095634 0.20135365 3.0835621
-1.012584 0.18410349 2.1918356
-0.95384222 0.17223503 1.6556019
-0.92199159 0.1658297 1.3152174
-0.90882242 0.16281834 1.0792141
-0.89958423 0.15841202 0.97741568
-0.88091892 0.15465912 0.80356121
-0.8629325 0.15135054 0.65901202
-0.87411141 0.15300497 0.55107355
-0.85476881 0.1494702 0.43890804
-0.86982548 0.15195218 0.34948593
-0.88073862 0.1535472 0.26120901
-0.85833812 0.14964433 0.1711676
-0.88945818 0.15791434 0.88573903
-0.87418628 0.15489532 0.72999263
-0.86771148 0.15359683 0.60343897
-0.85476279 0.15085062 0.48870388
-0.8562364 0.15096185 0.39174515
-0.8761555 0.15432169 0.30528715
-0.86798012 0.15288422 0.21513902
-0.84112459 0.14800757 0.12812719
-0.045411687 0.020845354 4.2091131
-0.63428342 0.12471764 4.1098871
-0.85042697 0.16323338 4.1866798
-1.1941603 0.22333185 3.9309452
-1.0442621 0.19267868 2.5612228
-0.97802454 0.1790619 1.8894032
-0.93918288 0.17094913 1.4746748
-0.91645759 0.16632578 1.1917962
-0.24418698 0.059892677 4.1874299
-0.43927011 0.091169752 4.1410737
-1.0170473 0.19401544 4.0238829
-1.0949244 0.20517689 3.0835621
-1.0119351 0.18763696 2.1918356
-0.95323527 0.17556351 1.6556019
-0.92140704 0.16904704 1.3152174
-0.90824854 0.16598973 1.0792141
-0.8990258 0.16155121 0.97741568
-0.88037378 0.15773317 0.80356121
-0.86239892 0.15436181 0.65901202
-0.87357199 0.15605526 0.55107355
-0.85880572 0.15326756 0.44078106
-0.86928982 0.15498751 0.34948593
-0.88019729 0.15662062 0.26120901
-0.8578105 0.15263957 0.1711676
-0.88890153 0.16101816 0.88573903
-0.87364024 0.15794586 0.72999263
-0.86716998 0.15662478 0.60343897
-0.854231 0.15383337 0.48870388
-0.85570425 0.15394975 0.39174515
-0.87561148 0.15737909 0.30528715
-0.87231511 0.15678918 0.21582969
-0.84060287 0.15094274 0.12812719
-0.045338646 0.021003744 4.2091131
-0.6338442 0.12693094 4.1098871
-0.84985203 0.16620094 4.1866798
-1.1933736 0.22749889 3.9309452
-1.0435832 0.19632265 2.5612228
-0.97974795 0.18291451 1.8937924
-0.93858045 0.17422645 1.4746748
-0.91587144 0.16952381 1.1917962
-0.24397643 0.060744684 4.1874299
-0.43842778 0.092591897 4.1361027
-1.01513 0.19732437 4.019043
-1.0958965 0.2093216 3.0882547
-1.011274 0.19116813 2.1918356
-0.95261657 0.17888986 1.6556019
-0.92081141 0.17226233 1.3152174
-0.90766358 0.16915908 1.0792141
-0.89845639 0.16468839 0.97741568
-0.87981778 0.16080528 0.80356121
-0.86185485 0.15737122 0.65901202
-0.8730219 0.15910365 0.55107355
-0.85826546 0.15626442 0.44078106
-0.86874348 0.15802096 0.34948593
-0.87964517 0.15969212 0.26120901
-0.85727245 0.15563296 0.1711676
-0.8883341 0.16412003 0.88573903
-0.87308359 0.16099447 0.72999263
-0.86661804 0.15965082 0.60343897
-0.85368884 0.15681426 0.48870388
-0.85516161 0.15693578 0.39174515
-0.8750568 0.16043459 0.30528715
-0.86689162 0.15894008 0.21513902
-0.84498501 0.15477623 0.12832873
-0.045265052 0.021161877 4.2091131
-0.63263601 0.12898712 4.1049476
-0.84926665 0.16916645 4.1866798
-1.1925721 0.23166317 3.9309452
-1.0448102 0.20033234 2.5658255
-0.97910351 0.18633336 1.8937924
-0.93796653 0.17750163 1.4746748
-0.91527408 0.17271976 1.1917962
-0.2437629 0.06159595 4.1874299
-0.43810192 0.094121732 4.1361027
-1.0132021 0.20062228 4.0142035
-1.0951592 0.21314572 3.0882547
-1.0106006 0.19469698 2.1918356
-0.95454782 0.18270449 1.6598678
-0.92020452 0.17547551 1.3152174
-0.91039819 0.17295934 1.0828893
-0.89787602 0.1678236 0.97741568
-0.88307744 0.16458876 0.80669963
-0.86541104 0.16114429 0.66175348
-0.87246126 0.16215008 0.55107355
-0.85771477 0.15925938 0.44078106
-0.86818659 0.16105248 0.34948593
-0.87908244 0.16276169 0.26120901
-0.85672402 0.15862446 0.1711676
-0.88775575 0.16721989 0.88573903
-0.87251627 0.16404113 0.72999263
-0.86605543 0.16267492 0.60343897
-0.85759717 0.16062889 0.49080193
-0.8546086 0.15991989 0.39174515
-0.87449145 0.16348812 0.30528715
-0.87119925 0.16287522 0.21582969
-0.84443957 0.15772483 0.12832873
-0.045190908 0.021319751 4.2091131
-0.63142121 0.13103642 4.100008
-0.84867096 0.17212991 4.1866798
-1.1917562 0.23582461 3.9309452
-1.0441046 0.2039782 2.5658255
-0.97844708 0.18974993 1.8937924
-0.93734121 0.18077467 1.4746748
-0.91466558 0.17591362 1.1917962
-0.24354641 0.062446468 4.1874299
-0.43777072 0.09565042 4.1361027
-1.0124956 0.20415778 4.0142035
-1.0961012 0.21730301 3.0929477
-1.0099148 0.19822343 2.1918356
-0.95390427 0.18603538 1.6598678
-0.92254424 0.17926151 1.3192074
-0.90978891 0.17613617 1.0828893
-0.89728475 0.17095675 0.97741568
-0.88249755 0.16767028 0.80669963
-0.86484325 0.16416416 0.66175348
-0.87188989 0.16519456 0.55107355
-0.85715365 0.16225238 0.44078106
-0.8676191 0.16408204 0.34948593
-0.87850893 0.16582926 0.26120901
-0.85616511 0.161614 0.1711676
-0.89083344 0.17102185 0.88906449
-0.87193835 0.16708578 0.72999263
-0.86548233 0.16569701 0.60343897
-0.85703129 0.16362147 0.49080193
-0.85868371 0.1637869 0.39338866
-0.87391543 0.16653968 0.30528715
-0.87062538 0.16591528 0.21582969
-0.84388387 0.1606715 0.12832873
-0.045116212 0.021477368 4.2091131
-0.63019973 0.13307878 4.0950689
-0.84806496 0.17509128 4.1866798
-1.1909257 0.23998319 3.9309452
-1.0433862 0.20762154 2.5658255
-0.97777873 0.1931642 1.8937924
-0.93670452 0.18404551 1.4746748
-0.91404599 0.17910533 1.1917962
-0.24360605 0.063370019 4.1924219
-0.43743414 0.097177938 4.1361027
-1.0105456 0.20743786 4.0093646
-1.095336 0.22112779 3.0929477
-1.0113513 0.20217444 2.196337
-0.95324904 0.18936399 1.6598678
-0.92191291 0.18248069 1.3192074
-0.9091686 0.17931086 1.0828893
-0.90018338 0.17476766 0.9809202
-0.88190693 0.17074975 0.80669963
-0.86426497 0.16718203 0.66175348
-0.87130797 0.16823702 0.55107355
-0.85658205 0.16524342 0.44078106
-0.86704111 0.16710959 0.34948593
-0.87792468 0.16889483 0.26120901
-0.86048609 0.16554245 0.17161468
-0.89023101 0.17413038 0.88906449
-0.87134981 0.17012839 0.72999263
-0.86489868 0.1687171 0.60343897
-0.85645491 0.16661207 0.49080193
-0.85810679 0.16678327 0.39338866
-0.8733288 0.16958919 0.30528715
-0.86517972 0.16800927 0.21513902
-0.83841342 0.16266467 0.12812719
-0.045040969 0.02163472 4.2091131
-0.62973136 0.13527779 4.0950689
-0.84645218 0.1778409 4.1817846
-1.1900808 0.24413882 3.9309452
-1.0426551 0.21126239 2.5658255
-0.97709852 0.1965761 1.8937924
-0.93605638 0.18731409 1.4746748
-0.91655844 0.18292235 1.1956338
-0.24338335 0.064219974 4.1924219
-0.4365724 0.098586358 4.1311312
-1.0098153 0.21096405 4.0093646
-1.0945574 0.22494988 3.0929477
-1.0106395 0.20570348 2.196337
-0.95513839 0.19320758 1.6641337
-0.92127025 0.18569766 1.3192074
-0.90853715 0.18248335 1.0828893
-0.89956778 0.17790882 0.9809202
-0.88130558 0.17382714 0.80669963
-0.86367607 0.17019786 0.66175348
-0.87071544 0.17127743 0.55107355
-0.85600001 0.16823244 0.44078106
-0.86645252 0.17013511 0.34948593
-0.87732983 0.17195833 0.26120901
-0.85990298 0.1685451 0.17161468
-0.88961774 0.1772368 0.88906449
-0.87075067 0.17316893 0.72999263
-0.86430448 0.17173514 0.60343897
-0.8558681 0.16960065 0.49080193
-0.85751933 0.16977762 0.39338866
-0.87273145 0.17263666 0.30528715
-0.86458796 0.17102829 0.21513902
-0.8378405 0.1655903 0.12812719
-0.044965178 0.021791814 4.2091131
-0.62849635 0.13730896 4.0901299
-0.84483063 0.18058141 4.1768894
-1.1892214 0.24829149 3.9309452
-1.0438247 0.21529549 2.5704281
-0.97406006 0.19950482 1.8894032
-0.93539679 0.1905804 1.4746748
-0.9159143 0.18612063 1.1956338
-0.24343629 0.065144889 4.1974134
-0.43622562 0.10010968 4.1311312
-1.0078434 0.21422614 4.0045252
-1.0937655 0.22876923 3.0929477
-1.0099154 0.20923001 2.196337
-0.95445818 0.19654046 1.6641337
-0.92356819 0.18951826 1.3231975
-0.90789461 0.18565363 1.0828893
-0.89894134 0.18104783 0.9809202
-0.88069344 0.17690241 0.80669963
-0.86307675 0.17321159 0.66175348
-0.87445575 0.17518602 0.55339235
-0.8554076 0.17121942 0.44078106
-0.86585331 0.17315856 0.34948593
-0.87190711 0.17405805 0.26027638
-0.85930943 0.17154568 0.17161468
-0.88899368 0.18034108 0.88906449
-0.87014085 0.17620736 0.72999263
-0.86369967 0.17475107 0.60343897
-0.85971963 0.173485 0.49289995
-0.85692143 0.17276987 0.39338866
-0.87212354 0.17568201 0.30528715
-0.86398572 0.17404522 0.21513902
-0.83725739 0.16851389 0.12812719
-0.044888835 0.021948637 4.2091131
-0.62725478 0.13933314 4.0851903
-0.84220529 0.18309619 4.167099
-1.1898075 0.25275147 3.9357171
-1.0449787 0.21933931 2.5750306
-0.97335774 0.20290372 1.8894032
-0.93472582 0.19384438 1.4746748
-0.91839778 0.18996607 1.1994712
-0.24320741 0.06599424 4.1974134
-0.4353545 0.10151024 4.1261597
-1.0070894 0.21774286 4.0045252
-1.0929604 0.23258579 3.0929477
-1.0113088 0.21320325 2.2008381
-0.95121384 0.19933581 1.6598678
-0.92290103 0.19274096 1.3231975
-0.90724099 0.18882164 1.0828893
-0.89830387 0.18418461 0.9809202
-0.88007051 0.17997552 0.80669963
-0.86246687 0.17622325 0.66175348
-0.87383884 0.17823738 0.55339235
-0.85934728 0.17513016 0.44265413
-0.86524367 0.17617989 0.34948593
-0.8712942 0.17710051 0.26027638
-0.85382515 0.17355219 0.1711676
-0.88835877 0.18344314 0.88906449
-0.86952049 0.17924364 0.72999263
-0.85886234 0.17689514 0.60090578
-0.85910887 0.17648491 0.49289995
-0.85631317 0.17576005 0.39338866
-0.87150496 0.17872521 0.30528715
-0.85852176 0.17606512 0.21444833
-0.83666402 0.17143543 0.12812719
-0.044811945 0.022105195 4.2091131
-0.6267646 0.14152183 4.0851903
-0.84156102 0.18603492 4.167099
-1.188918 0.25690314 3.9357171
-1.0461173 0.22339384 2.5796332
-0.97264349 0.20630014 1.8894032
-0.93404353 0.197106 1.4746748
-0.91772908 0.19317071 1.1994712
-0.24325359 0.066920474 4.202405
-0.43499753 0.1030293 4.1261597
-1.0050955 0.22098678 3.9996855
-1.0938283 0.23676479 3.0976403
-1.0105585 0.21673208 2.2008381
-0.95051223 0.20265496 1.6598678
-0.92222261 0.1959613 1.3231975
-0.90325969 0.19128479 1.0792141
-0.89765543 0.18731914 0.9809202
-0.87943691 0.18304646 0.80669963
-0.86184651 0.17923275 0.66175348
-0.87321138 0.18128656 0.55339235
-0.85873073 0.17812876 0.44265413
-0.86932057 0.18017268 0.35089597
-0.87067068 0.18014082 0.26027638
-0.85321409 0.17653154 0.1711676
-0.89136696 0.18731099 0.89239001
-0.87284541 0.18310778 0.73293579
-0.85823965 0.17989203 0.60090578
-0.86293 0.18041158 0.49499801
-0.85569447 0.17874806 0.39338866
-0.87087578 0.18176624 0.30528715
-0.85790193 0.17906085 0.21444833
-0.83606052 0.1743549 0.12812719
-0.04469768 0.0222381 4.2041135
-0.6255095 0.14353465 4.0802512
-0.83295959 0.18718337 4.1279373
-1.1894718 0.26137221 3.9404888
-1.0491493 0.2278738 2.5888383
-0.97191745 0.20969404 1.8894032
-0.93334979 0.20036522 1.4746748
-0.91704923 0.196373 1.1994712
-0.24301852 0.067769185 4.202405
-0.43463522 0.10454709 4.1261597
-1.004318 0.22449388 3.9996855
-1.0929952 0.24058151 3.0976403
-1.0097958 0.22025827 2.2008381
-0.949799 0.20597163 1.6598678
-0.92447817 0.19981605 1.3271875
-0.90258652 0.19443659 1.0792141
-0.89699614 0.19045141 0.9809202
-0.87879264 0.18611515 0.80669963
-0.86121559 0.18224005 0.66175348
-0.87257326 0.18433353 0.55339235
-0.85810369 0.18112521 0.44265413
-0.86868638 0.18320607 0.35089597
-0.87003654 0.18317893 0.26027638
-0.84771955 0.17848271 0.17072052
-0.89070773 0.1904213 0.89239001
-0.87220097 0.18615346 0.73293579
-0.85760647 0.18288676 0.60090578
-0.86229503 0.18342267 0.49499801
-0.85506529 0.18173389 0.39338866
-0.87023604 0.18480505 0.30528715
-0.85727167 0.1820544 0.21444833
-0.83544677 0.17727223 0.12812719
-0.044619784 0.022393988 4.2041135
-0.62500465 0.14571722 4.0802512
-0.82833076 0.18918192 4.1083565
-1.1885523 0.26552263 3.9404888
-1.0540702 0.23279917 2.6026456
-0.97351903 0.21359888 1.8937924
-0.93264467 0.203622 1.4746748
-0.91635817 0.19957291 1.1994712
-0.24305798 0.068696685 4.2073965
-0.43426764 0.10606361 4.1261597
-1.0023026 0.22771953 3.9948459
-1.0938327 0.24477236 3.1023331
-1.0090207 0.22378178 2.2008381
-0.94907427 0.2092858 1.6598678
-0.92377502 0.20304187 1.3271875
-0.89859074 0.19686036 1.0755389
-0.89632583 0.19358136 0.9809202
-0.87813759 0.18918157 0.80669963
-0.86057419 0.18524516 0.66175348
-0.87192446 0.18737826 0.55339235
-0.85746622 0.18411945 0.44265413
-0.86804157 0.18623725 0.35089597
-0.8741951 0.18724366 0.26120901
-0.84709138 0.18144071 0.17072052
-0.8900376 0.19352929 0.89239001
-0.87154585 0.18919688 0.73293579
-0.85696286 0.18587925 0.60090578
-0.86164951 0.18643153 0.49499801
-0.85442573 0.18471752 0.39338866
-0.86958563 0.18784162 0.30528715
-0.85179055 0.18400007 0.21375765
-0.83970636 0.18124147 0.12832873
-0.04454134 0.022549605 4.2041135
-0.62524825 0.14807741 4.0851903
-0.81973094 0.19022872 4.0691943
-1.1861626 0.26933917 3.9357171
-1.0437206 0.23433632 2.5796332
-0.97276747 0.21699579 1.8937924
-0.93192828 0.20687629 1.4746748
-0.91565597 0.20277037 1.1994712
-0.2428167 0.069544695 4.2073965
-0.43389475 0.10757884 4.1261597
-1.0015016 0.23121685 3.9948459
-1.0946543 0.24897195 3.1070261
-1.0082334 0.22730255 2.2008381
-0.94833791 0.21259741 1.6598678
-0.92306066 0.2062652 1.3271875
-0.89789814 0.19999582 1.0755389
-0.89564472 0.19670893 0.9809202
-0.87747186 0.19224569 0.80669963
-0.85992235 0.18824798 0.66175348
-0.87126511 0.1904207 0.55339235
-0.85681832 0.18711144 0.44265413
-0.86738622 0.18926615 0.35089597
-0.87353617 0.19029403 0.26120901
-0.84645289 0.18439649 0.17072052
-0.88935661 0.19663493 0.89239001
-0.87088007 0.19223799 0.73293579
-0.85630876 0.18886948 0.60090578
-0.86099344 0.1894381 0.49499801
-0.85377574 0.1876989 0.39338866
-0.86892468 0.19087589 0.30528715
-0.85597986 0.1880348 0.21444833
-0.83906865 0.18417148 0.12832873
-0.044462357 0.022704944 4.2041135
-0.62472749 0.15025903 4.0851903
-0.81807095 0.19285506 4.0642991
-1.1852151 0.273478 3.9357171
-1.0409915 0.23754331 2.5750306
-0.97433978 0.22091986 1.8981816
-0.93394542 0.21074769 1.4788078
-0.91494262 0.20596538 1.1994712
-0.24257246 0.070391864 4.2073965
-0.43351659 0.10909276 4.1261597
-0.99946475 0.2344241 3.9900069
-1.0937786 0.25279149 3.1070261
-1.0074339 0.23082057 2.2008381
-0.95013285 0.21648601 1.6641337
-0.92233503 0.20948602 1.3271875
-0.8971945 0.20312884 1.0755389
-0.8949526 0.19983412 0.9809202
-0.87679547 0.19530746 0.80669963
-0.85925996 0.19124852 0.66175348
-0.8705951 0.19346082 0.55339235
-0.8516342 0.18909617 0.44078106
-0.86672026 0.19229273 0.35089597
-0.87286663 0.19334207 0.26120901
-0.85066622 0.18842706 0.1711676
-0.88866484 0.19973816 0.89239001
-0.87020379 0.19527675 0.73293579
-0.85564429 0.1918574 0.60090578
-0.86032701 0.19244239 0.49499801
-0.85772377 0.1917081 0.39503217
