# .PCD v0.7 - Point Cloud Data file format
VERSION 0.7
FIELDS x y z
SIZE 4 4 4
TYPE F F F
COUNT 1 1 1
WIDTH 1482
HEIGHT 1
VIEWPOINT 0 0 0 1 0 0 0
POINTS 1482
DATA ascii
-0.432551 -2.0652156 1.1910623
-1.6762142 -8.0097055 3.3945537
-1.5836996 -7.574203 2.3644228
-1.4543476 -6.9676833 1.4428388
-1.3644646 -6.5370493 0.69246179
-1.6733572 -7.8930454 7.267374
-1.6844087 -7.958827 6.0070796
-0.42754021 -2.0219641 1.3000631
-0.49100766 -2.3280847 1.1873554
-1.6359689 -7.7633052 2.8504348
-1.4871749 -7.0633111 1.8316445
-1.4028664 -6.6628795 1.041883
-1.3441629 -6.3895774 0.35706633
-0.27586105 -1.1914442 7.774816
-0.51092756 -2.3053226 7.5958285
-0.74323779 -3.3922329 8.2407379
-0.41582623 -1.9203436 2.9584033
-0.49779552 -2.3046107 2.8994856
-1.6294801 -7.2255015 28.554924
-0.61508423 -2.7704713 7.7716351
-1.6231929 -7.3770094 15.681974
-1.6584574 -7.5812912 12.764094
-0.45305988 -2.0782104 2.8912768
-1.7099481 -7.8691511 8.8080845
-1.6896393 -7.8884025 8.0075359
-1.6864562 -7.8936715 6.5908747
-0.42903826 -2.0099885 1.4321055
-0.43883395 -2.0593605 1.1887435
-1.6887158 -7.9312572 3.3645852
-1.5562268 -7.3152566 2.288281
-1.4143705 -6.6598434 1.3840836
-1.3686532 -6.4445629 0.68441433
-1.6961761 -7.8652573 7.2474208
-0.43438655 -2.0177991 1.5864522
-0.43550214 -2.0246739 1.3025963
-0.4991312 -2.3263566 1.1873554
-1.6076258 -7.49898 2.7583981
-1.4802618 -6.9107394 1.7953026
-1.3586977 -6.3431973 0.99698883
-1.3382291 -6.2529426 0.35162497
-0.27645651 -1.1753476 7.6760311
-0.5183152 -2.3006129 7.5862846
-0.75464958 -3.3877113 8.2361355
-0.42797402 -1.9436139 2.9956
-0.50583708 -2.3028591 2.8994856
-0.62475121 -2.7683072 7.7716351
-1.6475075 -7.364924 15.668469
-1.6849109 -7.5754557 12.764094
-0.45835489 -2.0677907 2.879307
-1.7315544 -7.8366513 8.7786837
-1.7095736 -7.8476114 7.9724898
-1.7131735 -7.8839331 6.5877361
-0.43605182 -2.0084786 1.4321055
-0.44508144 -2.0534871 1.1864247
-1.6535898 -7.6353383 3.2447112
-1.5259517 -7.0519099 2.2107291
-1.424125 -6.5924468 1.3719596
-1.3217387 -6.1184788 0.65490711
-1.7228209 -7.8556414 7.2440953
-0.44574991 -2.0360131 1.6011682
-0.44256693 -2.0231414 1.3025963
-0.50628096 -2.3201656 1.1852573
-1.5744406 -7.2211103 2.6614313
-1.461956 -6.7108121 1.7472376
-1.3808312 -6.3384161 0.99698883
-1.298418 -5.9650993 0.3399362
-0.28507575 -1.1932677 7.7995124
-0.52600944 -2.2973347 7.5815125
-0.77466869 -3.4212587 8.3235836
-0.43598554 -1.9476004 3.003866
-0.50898194 -2.2791824 2.8726232
-1.6844453 -7.2335367 28.632355
-0.63441062 -2.7661097 7.7716351
-1.6736888 -7.3612523 15.672972
-1.7090433 -7.5593529 12.747031
-0.46424511 -2.0602992 2.8713269
-1.7522118 -7.8007898 8.7456074
-1.7331002 -7.8241868 7.9549675
-1.7415228 -7.8817053 6.5908747
-0.44306004 -2.0069444 1.4321055
-0.4512932 -2.0475948 1.1841059
-1.6144251 -7.3307095 3.1210911
-1.4959197 -6.7982364 2.1359975
-1.3680785 -6.2275968 1.302013
-1.3430882 -6.1138277 0.65490711
-1.7486063 -7.8422909 7.2374444
-0.44934103 -2.0186629 1.5893955
-0.4496263 -2.0215843 1.3025963
-0.51339376 -2.3139536 1.1831592
-1.5505782 -6.9942789 2.5825427
-1.4159929 -6.3924594 1.6698647
-1.3665347 -6.1691718 0.97350568
-1.3073565 -5.9068737 0.33771935
-0.5333488 -2.292577 7.571969
-0.78616822 -3.4166298 8.3189802
-0.44652769 -1.9625298 3.0286636
-0.51054853 -2.2492604 2.8380854
-1.7038972 -7.2031493 28.535568
-0.64406228 -2.7638783 7.7716351
-1.6993741 -7.3553648 15.672972
-1.7330838 -7.5431733 12.729967
-0.46941593 -2.0498543 2.8593569
-1.771131 -7.7582698 8.7051811
-1.7557003 -7.797214 7.9339395
-1.7698777 -7.8793764 6.5940132
-0.4500629 -2.0053854 1.4321055
-0.45746931 -2.0416846 1.1817871
-1.5751804 -7.0354991 3.0012169
-1.4819394 -6.6244445 2.0852363
-1.3876669 -6.2131953 1.3001478
-1.3166592 -5.8952522 0.63523561
-1.7743198 -7.8288565 7.230793
-0.45727679 -2.0210245 1.5923386
-0.45668018 -2.0200024 1.3025963
-0.52046919 -2.3077199 1.1810611
-1.4971219 -6.6433258 2.4592795
-1.4041296 -6.2357368 1.6323506
-1.343459 -5.966289 0.94518781
-1.2709422 -5.6488209 0.32723972
-0.54100478 -2.2892485 7.5671968
-0.79764491 -3.4119625 8.3143778
-0.45781326 -1.9801509 3.0575943
-0.51119196 -2.2162323 2.7997105
-1.7328478 -7.2130461 28.598478
-0.65330857 -2.7599342 7.766943
-1.726531 -7.3557458 15.686475
-1.7594038 -7.5370784 12.729967
-0.47451955 -2.0393989 2.8473866
-1.7943712 -7.7355275 8.6868048
-1.781316 -7.7840858 7.9269309
-1.7982373 -7.876945 6.5971518
-0.45706025 -2.0038023 1.4321055
-0.46459335 -2.0400753 1.1817871
-1.5678408 -6.8898268 2.9431531
-1.439111 -6.3292165 1.9978143
-1.3669356 -6.0214896 1.2637757
-1.3129755 -5.7837796 0.62539995
-1.7991228 -7.8116999 7.2208171
-0.46251708 -2.0115376 1.5864522
-0.46372855 -2.0183959 1.3025963
-0.52852148 -2.3058891 1.1810611
-1.4971097 -6.5367942 2.4231224
-1.4063703 -6.1455112 1.6112487
-1.3090417 -5.7201996 0.91065383
-1.289539 -5.6394811 0.32703823
-0.5482955 -2.2844431 7.5576525
-0.80864727 -3.4053562 8.3051739
-0.46665314 -1.9867592 3.069993
-0.5167309 -2.2050724 2.788198
-1.7624843 -7.2252707 28.671072
-0.66293854 -2.757637 7.766943
-1.7577506 -7.3729677 15.735989
-1.7851007 -7.5283532 12.7257
-0.47955588 -2.0289326 2.8354166
-1.8205847 -7.7259169 8.6831293
-1.7939383 -7.7152958 7.8638492
-1.825722 -7.8706198 6.5971518
-0.46499622 -2.006268 1.4348469
-0.47171172 -2.0384412 1.1817871
-1.5375708 -6.6494417 2.8457553
-1.4460763 -6.258719 1.9780738
-1.3592374 -5.8922315 1.2395276
-1.287261 -5.5802073 0.60706967
-1.8178728 -7.7690163 7.187562
-0.46953586 -2.0099108 1.5864522
-0.47077122 -2.0167649 1.3025963
-0.53553796 -2.2996101 1.1789632
-1.485669 -6.3843513 2.3705301
-1.3859816 -5.96066 1.5667007
-1.3267579 -5.7059484 0.90927249
-1.2752975 -5.4889555 0.32099229
-0.55555928 -2.2796149 7.5481091
-0.47227919 -1.9796438 3.0617273
-0.52442491 -2.2032554 2.788198
-1.7922269 -7.2373757 28.743662
-0.67256045 -2.7553062 7.766943
-1.7870622 -7.381598 15.767497
-1.8132005 -7.5296826 12.738499
-0.48382154 -2.0155263 2.8194566
-1.8388619 -7.683248 8.6427031
-1.8011833 -7.625689 7.7797403
-1.8540773 -7.8679881 6.6002903
-0.47199655 -2.0046327 1.4348469
-0.47882432 -2.036782 1.1817871
-1.5173044 -6.4589982 2.768961
-1.4251616 -6.0714979 1.9230825
-1.3484122 -5.7535357 1.2134142
-1.2930957 -5.5174966 0.60170472
-1.8277125 -7.6899719 7.1210518
-0.47561562 -2.0043271 1.5835092
-0.4788028 -2.0193038 1.3051294
-0.54356182 -2.2977269 1.1789632
-1.4699239 -6.2182837 2.3130074
-1.3766111 -5.828064 1.5350482
-1.3182077 -5.5807962 0.8920055
-1.2726449 -5.3920856 0.3171632
-0.56494761 -2.2834578 7.5671968
-0.47653598 -1.9670438 3.0451953
-0.53135931 -2.1982958 2.7843604
-1.818092 -7.2335138 28.75334
-0.68217421 -2.7529416 7.766943
-1.818014 -7.3964543 15.812509
-1.8407118 -7.5283747 12.747031
-0.48871315 -2.0050428 2.8074865
-1.832845 -7.5417175 8.4920216
-1.785363 -7.4424939 7.6010079
-1.8806243 -7.8576822 6.5971518
-0.47899115 -2.0029728 1.4348469
-0.4859311 -2.0350983 1.1817871
-1.4968039 -6.2732892 2.6940396
-1.4085207 -5.9078331 1.8751415
-1.3366356 -5.6149898 1.1873008
-1.273137 -5.3482332 0.58650404
-1.8449079 -7.6436205 7.0844717
-0.48260912 -2.0026546 1.5835092
-0.48584858 -2.0176203 1.3051294
-0.55051875 -2.2914023 1.1768651
-1.4398094 -5.9973044 2.2357624
-1.367466 -5.7003336 1.5045679
-1.3076452 -5.4509597 0.87404782
-1.2646737 -5.2758694 0.31252798
-0.57400584 -2.2858148 7.5815125
-0.83813602 -3.3720539 8.2453403
-0.47936615 -1.9489729 3.0203977
-0.5390296 -2.1964276 2.7843604
-0.69220054 -2.7522171 7.7716351
-1.8438214 -7.3900638 15.812509
-1.8688644 -7.5294971 12.759829
-0.49353743 -1.9945495 2.7955165
-1.8193656 -7.3739924 8.3119373
-1.7682865 -7.2595053 7.422276
-1.8813845 -7.7413864 6.5061369
-0.48597991 -2.0012887 1.4348469
-0.49303195 -2.0333896 1.1817871
-1.4924923 -6.159893 2.6490867
-1.3986565 -5.7769966 1.8370705
-1.3250628 -5.4813724 1.1621201
-1.2789263 -5.2905102 0.58158612
-1.8404723 -7.5102081 6.9680791
-0.48959675 -2.0009577 1.5835092
-0.49391234 -2.0200996 1.3076627
-0.55743831 -2.2850578 1.174767
-1.4394858 -5.9050746 2.2045357
-1.3562959 -5.568017 1.4729153
-1.2985368 -5.3308887 0.85747147
-1.2570884 -5.1646304 0.30809429
-0.58308738 -2.2881365 7.5958285
-0.84798992 -3.3615305 8.2269306
-0.48275781 -1.9336367 2.999733
-0.54669327 -2.1945326 2.7843604
-0.23072712 -0.8347128 8.033761
-0.70180333 -2.749784 7.7716351
-1.8658657 -7.3688102 15.781
-1.8964101 -7.5279856 12.76836
-0.49829453 -1.9840472 2.7835462
-1.7619114 -7.035449 7.9407463
-1.7653644 -7.1390433 7.3066263
-1.8916122 -7.66675 6.4496446
-0.49396372 -2.0036399 1.4375885
-0.50118566 -2.0359573 1.1841059
-1.4597231 -5.9340615 2.5573082
-1.3867514 -5.6416445 1.7975897
-1.3055484 -5.3192821 1.1313436
-1.2724578 -5.1844487 0.5721975
-1.8387336 -7.3914137 6.8649879
-0.49755281 -2.0031593 1.5864522
-0.50096077 -2.0183632 1.3076627
-0.56541121 -2.283098 1.174767
-1.3954288 -5.6387315 2.1108556
-1.3465526 -5.4452858 1.4436073
-1.2874174 -5.2061419 0.84020448
-1.2499409 -5.0583596 0.30386215
-0.59181839 -2.2889776 7.6053724
-0.8568114 -3.3471942 8.1993151
-0.48466572 -1.9128453 2.9708023
-0.55435026 -2.192611 2.7843604
-0.23363942 -0.8339023 8.033761
-0.71183026 -2.7489879 7.7763281
-1.9246141 -7.5289001 12.781158
-0.50298429 -1.973536 2.7715764
-1.6971061 -6.6776857 7.5475035
-1.7598869 -7.0117741 7.1839671
-1.8587903 -7.4222302 6.2519217
-0.50095469 -2.0019035 1.4375885
-0.50828946 -2.0341957 1.1841059
-1.4399964 -5.7670083 2.4898791
-1.3727576 -5.5017934 1.7566987
-1.3015448 -5.2241278 1.1136237
-1.2676728 -5.0881629 0.563703
-1.8371025 -7.2763457 6.765223
-0.50454211 -2.0014102 1.5864522
-0.50905615 -2.0207822 1.3101958
-0.57227087 -2.2767088 1.1726689
-1.4082009 -5.6063471 2.1009946
-1.3324198 -5.3085499 1.4107825
-1.2778546 -5.0911455 0.82431883
-1.2432823 -4.9570484 0.29983154
-0.60094118 -2.2912295 7.6196885
-0.86898124 -3.3460739 8.2039175
-0.49063909 -1.9084164 2.9666693
-0.56200051 -2.1906626 2.7843604
-0.23581958 -0.83051819 8.0089045
-0.72142166 -2.7464864 7.7763281
-1.9521927 -7.5271854 12.78969
-0.5091157 -1.9688511 2.7675862
-1.688237 -6.5469766 7.4078474
-1.7658665 -6.9330144 7.1103716
-1.8223678 -7.1704922 6.0479221
-0.50793958 -2.0001426 1.4375885
-0.515387 -2.032409 1.1841059
-1.4418974 -5.6900449 2.4599106
-1.3601598 -5.3714099 1.7186277
-1.2848512 -5.0814438 1.0865778
-1.2732182 -5.0354261 0.55923218
-1.8411775 -7.1866989 6.6887369
-0.51252705 -2.0035527 1.5893955
-0.51610696 -2.0189929 1.3101958
-0.5790928 -2.2702997 1.170571
-1.3869392 -5.4412422 2.0434718
-1.317349 -5.1719799 1.3779576
-1.2601709 -4.9474869 0.8042891
-1.2346997 -4.8510056 0.29559937
-0.60778391 -2.2847903 7.6053724
-0.88264692 -3.3505771 8.2223282
-0.49445659 -1.8958005 2.9501376
-0.56964391 -2.1886876 2.7843604
-0.23871718 -0.82968998 8.0089045
-0.7310043 -2.7439516 7.7763281
-1.9764647 -7.5127583 12.776893
-0.51522046 -1.9641472 2.7635963
-1.6861982 -6.4459291 7.3012671
-1.7641793 -6.8266759 7.0087395
-1.787127 -6.930409 5.8533382
-0.51596171 -2.0024066 1.4403298
-0.52247828 -2.0305974 1.1841059
-1.4224987 -5.5323219 2.3962274
-1.3418937 -5.222599 1.6749167
-1.2879313 -5.0198302 1.0753864
-1.2561338 -4.8958869 0.54671401
-1.8371348 -7.0682034 6.5856466
-0.5195176 -2.0017514 1.5893955
-0.5231514 -2.017179 1.3101958
-0.58587694 -2.2638705 1.1684729
-1.3775481 -5.3266459 2.0040276
-1.2952607 -5.0120516 1.3392712
-1.2638037 -4.8903184 0.79669166
-1.2253922 -4.7450843 0.29136723
-0.6149779 -2.2797723 7.5958285
-0.50179094 -1.8967834 2.9542706
-0.57646221 -2.1835866 2.7805231
-0.24146245 -0.82833993 8.003933
-0.740578 -2.7413831 7.7763281
-2.0046942 -7.5133734 12.78969
-0.52207351 -1.9623368 2.7635963
-1.6904304 -6.371192 7.2240891
-1.7662934 -6.7376838 6.9246306
-1.7650093 -6.7471447 5.7058301
-0.52294827 -2.0005932 1.4403298
-0.53068215 -2.0330477 1.1864247
-1.421909 -5.4510636 2.3643858
-1.3371255 -5.1296854 1.6481261
-1.2819355 -4.9249816 1.0576667
-1.2418545 -4.770988 0.535537
-1.8313359 -6.9462147 6.4792299
-0.52650183 -1.9999259 1.5893955
-0.53018945 -2.0153406 1.3101958
-0.59377575 -2.2618117 1.1684729
-1.3589861 -5.1802087 1.9530787
-1.2856308 -4.9040613 1.3134801
-1.2570063 -4.7948632 0.78356868
-1.216627 -4.6441207 0.28733662
-0.62175041 -2.2732925 7.5815125
-0.50913817 -1.897738 2.9584033
-0.58408082 -2.181561 2.7805231
-0.24389878 -0.82595855 7.9890184
-0.75014269 -2.7387812 7.7763281
-0.52813518 -1.9575933 2.7596061
-1.6906381 -6.2834091 7.1322103
-1.7687243 -6.6522079 6.8440261
-1.7416344 -6.5641227 5.5583229
-0.52992845 -1.9987557 1.4403298
-0.53777558 -2.031183 1.1864247
-1.4053544 -5.3116159 2.3081949
-1.2986183 -4.911653 1.5832646
-1.2778014 -4.839735 1.0418121
-1.2292615 -4.655879 0.52525419
-1.8131343 -6.7810698 6.3329086
-0.53347969 -1.9980758 1.5893955
-0.53722107 -2.0134776 1.3101958
-0.60049951 -2.2553391 1.1663748
-1.3479189 -5.0659122 1.9136345
-1.2765121 -4.8008981 1.2888615
-1.2521032 -4.7090878 0.7718271
-1.2084547 -4.5481062 0.28350753
-0.33998653 -1.1828409 7.8242087
-0.6288842 -2.2682316 7.571969
-0.51649815 -1.8986647 2.9625366
-0.59169233 -2.1795089 2.7805231
-0.75969827 -2.736146 7.7763281
-1.1981179 -4.3678818 7.4786019
-0.53496528 -1.9557378 2.7596061
-1.6947151 -6.2120571 7.0587063
-1.7705802 -6.5667977 6.7634211
-1.7079018 -6.3475204 5.3825698
-0.53690213 -1.9968936 1.4403298
-0.54601115 -2.0335715 1.1887435
-1.387844 -5.1723518 2.2520039
-1.3157552 -4.9070902 1.5832646
-1.2705468 -4.7450881 1.0240922
-1.2094401 -4.5168657 0.51273596
-1.8065045 -6.6629853 6.2298174
-0.54045105 -1.9962014 1.5893955
-0.5442462 -2.0115902 1.3101958
-0.60836852 -2.2532294 1.1663748
-1.3151579 -4.8742523 1.8462507
-1.2844049 -4.7635622 1.2806553
-1.2427493 -4.6090627 0.75801355
-1.1996274 -4.4522061 0.27967843
-0.34411335 -1.1816469 7.8242087
-0.63639402 -2.2645857 7.5671968
-0.52312261 -1.8968502 2.9625366
-0.59929663 -2.1774302 2.7805231
-0.76924455 -2.7334776 7.7763281
-1.2126585 -4.3611598 7.4743357
-0.54178888 -1.9538586 2.7596061
-1.6974113 -6.1374869 6.9815283
-1.7718618 -6.4814568 6.682817
-1.6808745 -6.1612759 5.2319231
-0.54386938 -1.9950074 1.4403298
-0.55310631 -2.0316532 1.1887435
-1.3693788 -5.0332766 2.1958127
-1.2926028 -4.7543387 1.5381435
-1.2626474 -4.6505527 1.0063725
-1.2069316 -4.445333 0.50647688
-1.7733421 -6.451426 6.0402641
-0.54741579 -1.9943027 1.5893955
-0.55240512 -2.0138357 1.312729
-0.61503172 -2.2467148 1.1642767
-1.3296722 -4.8605223 1.8429636
-1.284362 -4.6980982 1.2654152
-1.2340187 -4.513938 0.74489063
-1.1914623 -4.3612437 0.27605087
-0.34801596 -1.1796933 7.8192692
-0.64347714 -2.259479 7.5576525
-0.93886554 -3.3271418 8.2039175
-1.2020162 -4.2823606 8.2184553
-0.53049833 -1.8977226 2.9666693
-0.60689366 -2.1753252 2.7805231
-0.77878153 -2.7307758 7.7763281
-2.0839357 -7.35992 15.880028
-1.228582 -4.3594108 7.4786019
-0.5486058 -1.9519556 2.7596061
-1.6968625 -6.0531807 6.8933244
-1.7725695 -6.3961883 6.6022124
-1.662944 -6.0128155 5.1126623
-0.5519439 -1.9971273 1.4430714
-0.56019473 -2.0297101 1.1887435
-1.3499603 -4.8943949 2.139622
-1.2964435 -4.7035513 1.5240432
-1.2541038 -4.5561309 0.98865277
-1.1999737 -4.3594689 0.49887654
-1.7487475 -6.2761493 5.883966
-0.55437386 -1.9923798 1.5893955
-0.55943131 -2.0118949 1.312729
-0.62165684 -2.240181 1.1621786
-1.3075103 -4.714788 1.792015
-1.2799836 -4.6186414 1.2466581
-1.2246392 -4.418931 0.73176765
-1.1826769 -4.2703934 0.27242333
-0.35035071 -1.1725161 7.7797551
-0.65136021 -2.2572193 7.5576525
-0.94993645 -3.3219655 8.1993151
-1.213025 -4.2643166 8.1921206
-0.53711933 -1.8958592 2.9666693
-0.61448318 -2.1731935 2.7805231
-0.78878808 -2.7296987 7.7810211
-2.1162186 -7.3756189 15.929541
-1.2480892 -4.370142 7.5041971
-0.55541605 -1.9500287 2.7596061
-1.7013047 -5.9885206 6.8271713
-1.7775258 -6.3281608 6.5391302
-1.6418966 -5.8570604 4.9871235
-0.5589118 -1.9951885 1.4430714
-0.56846988 -2.0320084 1.1910623
-1.3408234 -4.7958941 2.1002882
-1.2909101 -4.6204553 1.5000726
-1.2462369 -4.466558 0.97186553
-1.1790477 -4.2257414 0.48680541
-1.7188923 -6.0867515 5.714365
-0.56132519 -1.9904325 1.5893955
-0.56645072 -2.0099299 1.312729
-0.62824386 -2.2336283 1.1600807
-1.2920144 -4.5965452 1.7509272
-1.2698085 -4.520555 1.2232118
-1.2172904 -4.333581 0.72002614
-1.1759726 -4.1892786 0.26919883
-0.35511708 -1.1735168 7.7945728
-0.65923542 -2.2549317 7.5576525
-0.96098292 -3.3167534 8.1947126
-1.224586 -4.2485499 8.1701756
-0.54373389 -1.8939728 2.9666693
-0.62206537 -2.1710353 2.7805231
-0.79831171 -2.7269285 7.7810211
-2.1449897 -7.3786387 15.952046
-1.2684113 -4.383296 7.5340595
-0.5622195 -1.948078 2.7596061
-1.7034408 -5.9173884 6.7536678
-1.7722647 -6.2258778 6.4410028
-1.6197827 -5.7015281 4.8615856
-0.56587297 -1.9932253 1.4430714
-0.5755595 -2.0300117 1.1910623
-1.3297517 -4.6930566 2.0590816
-1.2835056 -4.5328403 1.4746921
-1.2364235 -4.3723698 0.95414579
-1.181595 -4.1784711 0.48278168
-1.6897917 -5.9048209 5.5514159
-0.56826973 -1.988461 1.5893955
-0.57346326 -2.0079405 1.312729
-0.63603681 -2.2314217 1.1600807
-1.2951146 -4.5465922 1.7344921
-1.2576337 -4.417922 1.1985931
-1.2093607 -4.2483368 0.70828456
-1.1673496 -4.1034584 0.26577282
-0.35898349 -1.1715273 7.7896342
-0.66710258 -2.2526169 7.5576525
-0.98080897 -3.3414969 8.263751
-1.2380661 -4.2396517 8.161397
-0.55112785 -1.8947654 2.9708023
-0.62874621 -2.1657724 2.7766855
-0.15103666 -0.41995627 7.5567994
-0.80782557 -2.7241254 7.7810211
-2.1731932 -7.3794594 15.970052
-1.283704 -4.3788414 7.5340595
-0.56817043 -1.9432114 2.7556162
-1.7117462 -5.8690968 6.7058911
-1.7564284 -6.0894446 6.3078303
-1.6009107 -5.5611849 4.748601
-0.57398313 -1.9952564 1.4458128
-0.58264202 -2.0279903 1.1910623
-1.3128614 -4.5725331 2.0103827
-1.2741821 -4.4407229 1.4479014
-1.225968 -4.2783051 0.93642598
-1.1632495 -4.0594263 0.4720518
-1.6698405 -5.7590303 5.4217215
-0.57520723 -1.9864651 1.5893955
-0.58046877 -2.0059266 1.312729
-0.64256269 -2.2248275 1.1579826
-1.2900248 -4.4694524 1.7081959
-1.2420639 -4.3060894 1.1716297
-1.2022237 -4.1679602 0.69723368
-1.1595259 -4.0225511 0.2625483
-0.3630707 -1.1702671 7.7896342
-0.67496163 -2.2502744 7.5576525
-1.0052741 -3.3811228 8.3696089
-1.2467427 -4.2146344 8.1218958
-0.55773836 -1.8928299 2.9708023
-0.63630229 -2.1635644 2.7766855
-0.15279943 -0.42023978 7.5717745
-0.81732965 -2.7212889 7.7810211
-2.1927161 -7.3509674 15.925039
-1.2974963 -4.3693333 7.5255275
-0.57494998 -1.9412162 2.7556162
-1.7149321 -5.8045645 6.6397381
-1.7506647 -5.9908528 6.2132077
-1.5799894 -5.4173079 4.6324782
-0.58094442 -1.9932406 1.4458128
-0.58971751 -2.0259442 1.1910623
-1.3197501 -4.5367632 1.9972714
-1.2655709 -4.3533344 1.4225209
-1.2162409 -4.1890855 0.91963881
-1.1704698 -4.0314283 0.46981639
-1.6436307 -5.59554 5.2753992
-0.58213782 -1.9844453 1.5893955
-0.58867997 -2.0080247 1.3152622
-0.65032482 -2.2225711 1.1579826
-1.2857381 -4.3969369 1.6835433
-1.2366365 -4.2317457 1.154045
-1.1959296 -4.0924392 0.6868735
-1.1525525 -3.9465451 0.25952536
-0.36692047 -1.1682514 7.7846947
-0.68237853 -2.2464764 7.5528808
-1.0210137 -3.3906882 8.4018259
-0.5651471 -1.8935679 2.9749353
-0.64385068 -2.1613302 2.7766855
-0.1539648 -0.41889161 7.5567994
-0.82632148 -2.7167683 7.7763281
-2.2183623 -7.3432689 15.925039
-0.58172262 -1.9391974 2.7556162
-1.7206044 -5.749825 6.5846105
-1.7300628 -5.8445034 6.069521
-1.5558776 -5.26618 4.5100784
-0.58789861 -1.9912006 1.4458128
-0.59678578 -2.0238733 1.1910623
-1.3198526 -4.4787664 1.974795
-1.2563654 -4.2660604 1.3971403
-1.2086784 -4.1094122 0.90471691
-1.164862 -3.9604321 0.4635573
-1.6301433 -5.4788284 5.1723084
-0.58906126 -1.9824011 1.5893955
-0.59568572 -2.0059574 1.3152622
-0.65678936 -2.2159362 1.1558845
-1.2782785 -4.3154507 1.6556036
-1.223807 -4.1341896 1.1305987
-1.1891229 -4.017014 0.67651325
-1.1450626 -3.8706372 0.25650239
-0.37099618 -1.1669635 7.7846947
-0.690216 -2.2440808 7.5528808
-1.0328432 -3.3871033 8.4018259
-1.2524914 -4.1279068 7.9726667
-0.57175344 -1.8915838 2.9749353
-0.65139121 -2.1590695 2.7766855
-0.15724677 -0.4232187 7.6466494
-0.83529174 -2.712218 7.7716351
-2.2414343 -7.3271537 15.907036
-0.58848816 -1.937155 2.7556162
-1.7229658 -5.6853838 6.5184574
-1.7074368 -5.6949563 5.9223304
-1.5530486 -5.1898675 4.450448
-0.59604365 -1.9931424 1.4485543
-0.60384673 -2.0217779 1.1910623
-1.314263 -4.4030566 1.9448265
-1.2479376 -4.1835017 1.3731697
-1.2047822 -4.0439672 0.89259279
-1.1616166 -3.8990693 0.45819232
-1.6158617 -5.3622804 5.0692182
-0.5971424 -1.9842032 1.5923386
-0.6026842 -2.003866 1.3152622
-0.66452044 -2.21363 1.1558845
-1.2702661 -4.2340713 1.627664
-1.2186873 -4.0647101 1.1141862
-1.1832269 -3.9464304 0.66684377
-1.1384912 -3.7996166 0.25368094
-0.3748292 -1.1649218 7.7797551
-0.6976012 -2.2402327 7.5481091
-1.042931 -3.3778775 8.3880186
-0.57917649 -1.8922672 2.9790683
-0.6589238 -2.1567826 2.7766855
-0.15943775 -0.42455748 7.681591
-0.84424043 -2.7076387 7.766943
-2.2644207 -7.310967 15.88903
-0.59524649 -1.935089 2.7556162
-1.723904 -5.6177559 6.4486294
-1.6848246 -5.5490522 5.7786436
-1.5327725 -5.0577645 4.3437405
-0.60299742 -1.9910496 1.4485543
-0.61218292 -2.0238974 1.1933811
-1.294746 -4.2830648 1.8961276
-1.2403362 -4.1056466 1.3506092
-1.1990255 -3.9738979 0.87953621
-1.1550804 -3.8282437 0.45193323
-1.5887989 -5.2066174 4.9295473
-0.60406494 -1.9821067 1.5923386
-0.60967529 -2.00175 1.3152622
-0.67092323 -2.2069547 1.1537864
-1.2617015 -4.152802 1.5997243
-1.2145098 -3.9999685 1.0989461
-1.1782916 -3.8806763 0.65786493
-1.1256355 -3.7095671 0.25005341
-0.37865251 -1.1628674 7.774816
-0.70496798 -2.2363603 7.5433369
-1.0547156 -3.3742166 8.3880186
-0.58661133 -1.8929219 2.983201
-0.66644835 -2.1544695 2.7766855
-0.15968235 -0.42076221 7.6216912
-0.85316718 -2.7030296 7.7622504
-2.289927 -7.3030181 15.88903
-1.3373882 -4.2835751 7.410347
-0.60199761 -1.9329994 2.7556162
-1.7264031 -5.5566673 6.3861513
-1.6643591 -5.4136038 5.6454711
-1.5184449 -4.948194 4.2558632
-0.60994381 -1.9889326 1.4485543
-0.61924386 -2.0217483 1.1933811
-1.26898 -4.1455326 1.8399366
-1.2195768 -3.9866118 1.3153584
-1.1927943 -3.903918 0.86647946
-1.1509744 -3.7670369 0.44656828
-1.5761011 -5.1011534 4.8364329
-0.61813146 -2.0031602 1.6099977
-0.6179294 -2.0037289 1.3177954
-0.67728758 -2.2002616 1.1516885
-1.2498081 -4.0626178 1.5684978
-1.2084672 -3.9306605 1.0825336
-1.1714566 -3.810272 0.64819539
-1.128306 -3.6721859 0.24864268
-0.38246602 -1.1608007 7.769877
-0.71276999 -2.233886 7.5433369
-1.0629508 -3.3593385 8.3604031
-0.59405768 -1.8935477 2.9873343
-0.67300689 -2.1490715 2.7728481
-0.16125408 -0.42047155 7.6266823
-0.86312258 -2.7016788 7.766943
-2.3140881 -7.2908301 15.880028
-1.3476167 -4.2639604 7.3847518
-0.60874134 -1.9308863 2.7556162
-1.7091703 -5.4341846 6.2538457
-1.6376693 -5.2613416 5.4947758
-1.5010617 -4.8313527 4.1617098
-0.61688274 -1.9867914 1.4485543
-0.6262973 -2.0195744 1.1933811
-1.2738359 -4.1100812 1.8268254
-1.2207114 -3.9410896 1.3026681
-1.1875411 -3.8387237 0.85435539
-1.1449835 -3.7011487 0.44075626
-1.5626866 -4.9958425 4.743319
-1.490567 -4.7711039 3.723187
-0.62492001 -2.0015597 1.3177954
-0.68361342 -2.1935511 1.1495904
-1.2485347 -4.008636 1.550419
-1.2034005 -3.866086 1.0672935
-1.1641446 -3.7399638 0.63852584
-1.1247935 -3.6157503 0.24642584
-0.38626978 -1.1587216 7.7649379
-0.72010458 -2.2299638 7.5385647
-1.087185 -3.3946791 8.457057
-0.60066378 -1.8914624 2.9873343
-0.68050444 -2.146709 2.7728481
-0.16324538 -0.42125088 7.6516409
-0.87254798 -2.6986494 7.766943
-2.3388579 -7.2806354 15.875525
-1.3601083 -4.2517781 7.3719535
-0.61456156 -1.9258792 2.7516263
-1.6962463 -5.3280435 6.1399155
-1.6238711 -5.1535516 5.3896394
-1.4852171 -4.7221203 4.073833
-0.62506807 -1.9886149 1.4512957
-0.63467002 -2.0216022 1.1956999
-1.2631934 -4.02599 1.7931107
-1.217237 -3.8818772 1.2857476
-1.1818476 -3.7736146 0.84223133
-1.1400353 -3.6401012 0.43539131
-1.5451753 -4.8800101 4.6402287
-1.454803 -4.6001558 3.5966308
-0.63190293 -1.9993663 1.3177954
-0.6899007 -2.1868234 1.1474924
-1.2412201 -3.9366992 1.5257665
-1.1964371 -3.7969589 1.050881
-1.1578448 -3.6744766 0.62954706
-1.1224016 -3.5641496 0.24441053
-0.39031208 -1.1573662 7.7649379
-0.72788423 -2.2274365 7.5385647
-1.0990281 -3.3908634 8.457057
-0.60812366 -1.8920331 2.991467
-0.68799371 -2.1443207 2.7728481
-0.16355045 -0.41772401 7.5967326
-0.88303596 -2.6988673 7.7763281
-1.3773515 -4.2544484 7.3847518
-0.62128037 -1.9237221 2.7516263
-1.6815628 -5.2188325 6.0223103
-1.6082567 -5.0425258 5.2809982
-1.4674481 -4.6093493 3.9828176
-0.63200581 -1.986421 1.4512957
-0.64172292 -2.0193746 1.1956999
-1.2421561 -3.9110954 1.746285
-1.2133646 -3.8227377 1.2688273
-1.1757143 -3.7085929 0.83010727
-1.1346751 -3.579134 0.43002635
-1.5280143 -4.7679181 4.5404639
-1.4314193 -4.4718628 3.50245
-0.64019156 -2.0012538 1.3203285
-0.69752997 -2.1844018 1.1474924
-1.2362902 -3.8738608 1.5044008
-1.1904829 -3.7325592 1.035641
-1.1511019 -3.6090798 0.62056822
-1.1181459 -3.5078504 0.24219368
-0.39434966 -1.1559967 7.7649379
-0.73565495 -2.2248824 7.5385647
-1.3535306 -4.146306 8.0604486
-0.61559492 -1.8925749 2.9956
-0.69448459 -2.1388574 2.7690105
-0.16458043 -0.41607773 7.576766
-0.89299381 -2.6974068 7.7810211
-2.3345251 -7.0966296 15.510928
-1.3978778 -4.2669635 7.4146132
-0.62799168 -1.9215418 2.7516263
-1.6608829 -5.0936751 5.8863292
-1.5853144 -4.9113097 5.15133
-1.4536853 -4.5115805 3.9043562
-0.63893586 -1.9842027 1.4512957
-0.65012431 -2.0213392 1.1980187
-1.2487073 -3.8846681 1.7369198
-1.2076269 -3.7591054 1.2504969
-1.1691418 -3.6436608 0.81798321
-1.130425 -3.5229912 0.42510849
-1.5089378 -4.6524544 4.4373732
-1.4021753 -4.3284092 3.3964958
-0.64717335 -1.999007 1.3203285
-0.7037549 -2.177635 1.1453942
-1.2294854 -3.8066108 1.4813917
-1.1840938 -3.6682479 1.0204008
-1.1454382 -3.5484881 0.61228007
-1.1119773 -3.4468701 0.23977531
-0.39838243 -1.154613 7.7649379
-0.74294311 -2.220885 7.5337925
-1.1891344 -3.5833628 8.9541292
-1.3755077 -4.1642971 8.1043396
-0.62219757 -1.8904145 2.9956
-0.70194644 -2.1364202 2.7690105
-0.16538545 -0.41389367 7.5468159
-0.90295225 -2.6959095 7.7857137
-2.2465312 -6.7496905 14.772729
-1.4267144 -4.304142 7.487134
-0.63469529 -1.9193381 2.7516263
-1.6435994 -4.9816051 5.7650485
-1.5736572 -4.8176069 5.0602121
-1.4380516 -4.4102645 3.8227565
-0.64585817 -1.9819603 1.4512957
-0.65717614 -2.0190575 1.1980187
-1.239314 -3.8097494 1.7069513
-1.20146 -3.6955612 1.2321664
-1.1636474 -3.583492 0.80679178
-1.1242586 -3.4621856 0.41974354
-1.5007178 -4.5726595 4.3675375
-1.3920935 -4.2466702 3.3376327
-0.65548944 -2.0008326 1.3228618
-0.70994127 -2.1708515 1.1432962
-1.2207596 -3.7349689 1.4567391
-1.17878 -3.6086478 1.006333
-1.1378281 -3.4832735 0.60330123
-1.1069473 -3.3907259 0.23755848
-0.40087333 -1.1488141 7.735302
-0.75069094 -2.2182782 7.5337925
-1.198526 -3.5699296 8.9311161
-1.3930719 -4.1685562 8.1218958
-0.62968171 -1.8909011 2.999733
-0.70838845 -2.1309152 2.765173
-0.16595992 -0.41117412 7.5068827
-0.91291106 -2.6943755 7.7904067
-2.1547554 -6.3993301 14.025527
-1.4583151 -4.3485889 7.5724521
-0.64139116 -1.9171108 2.7516263
-1.6212602 -4.8568559 5.6290679
-1.5445775 -4.6732545 4.9165254
-1.4278264 -4.3275957 3.7568488
-0.65408206 -1.9836651 1.4540372
-0.66421998 -2.0167513 1.1980187
-1.235211 -3.7525585 1.6844749
-1.1948646 -3.6321063 1.2138361
-1.1577477 -3.5234075 0.79560035
-1.1207913 -3.4109292 0.41527274
-1.486076 -4.4752626 4.281075
-1.3890936 -4.1880751 3.2964287
-0.66246969 -1.9985323 1.3228618
-0.71751463 -2.1683602 1.1432962
-1.2130314 -3.6679177 1.4337299
-1.1715391 -3.5445154 0.99109286
-1.1313311 -3.422858 0.59501302
-1.101539 -3.3346591 0.23534164
-0.40410483 -1.1452097 7.7204843
-0.75842965 -2.2156444 7.5337925
-1.2116085 -3.567574 8.9357185
-1.4152852 -4.1863565 8.1657867
-0.63627833 -1.8886915 2.999733
-0.71582234 -2.1284294 2.765173
-0.16794215 -0.41192773 7.5318413
-0.92342979 -2.6944375 7.7997923
-2.0949564 -6.1506705 13.498885
-1.5044879 -4.4348536 7.7302923
-0.64807916 -1.9148604 2.7516263
-1.606748 -4.7580209 5.5224881
-1.5393918 -4.6035738 4.8499393
-1.4195069 -4.2524366 3.6972182
-0.6610024 -1.9813699 1.4540372
-0.67125571 -2.0144205 1.1980187
-1.2292591 -3.6910448 1.6601255
-1.1878409 -3.568743 1.1955056
-1.1514428 -3.4634075 0.78440887
-1.1169798 -3.3597395 0.41080198
-1.4719617 -4.3815632 4.1979375
-1.3767006 -4.1027284 3.2346222
-0.66944182 -1.9962077 1.3228618
-0.72363836 -2.1615384 1.1411982
-1.2048504 -3.6009674 1.4107208
-1.1654067 -3.4850876 0.97702503
-1.1244261 -3.3625305 0.58672488
-1.0989203 -3.2881491 0.23352787
-0.40705478 -1.1408652 7.7007275
-0.76664746 -2.2143939 7.5385647
-1.2202457 -3.5522373 8.9081039
-1.4260149 -4.1700602 8.1438417
-0.64377499 -1.8891226 3.003866
-0.72221518 -2.1228836 2.7613354
-0.16982111 -0.41240579 7.5518079
-0.71172929 -2.03178 8.3261309
-0.93339479 -2.6928282 7.8044853
-1.4945639 -4.3555703 7.6023145
-0.65475941 -1.9125865 2.7516263
-0.8036201 -2.3526917 2.7734649
-1.5188824 -4.4900699 4.7377939
-1.4094349 -4.1737013 3.634449
-0.66791457 -1.9790505 1.4540372
-0.67969835 -2.0162628 1.2003375
-1.2243733 -3.634012 1.6376491
-1.1819206 -3.5100203 1.1785853
-1.1447333 -3.403496 0.77321744
-1.1128248 -3.3086188 0.40633118
-1.4548091 -4.2809477 4.1081486
-1.3650281 -4.021348 3.1757588
-0.67779076 -1.9979409 1.3253949
-0.73117912 -2.1589992 1.1411982
-1.1977308 -3.5385921 1.3893552
-1.1604315 -3.430351 0.96412951
-1.1171142 -3.302294 0.57843673
-1.0959903 -3.241698 0.23171408
-0.41024312 -1.1372449 7.6859097
-0.77437246 -2.2117045 7.5385647
-1.2416147 -3.5737922 8.9725389
-1.5556477 -4.4977798 8.7890358
-0.65128243 -1.8895242 3.0079987
-0.72962105 -2.1203494 2.7613354
-0.17148256 -0.41234314 7.5617914
-0.7204963 -2.0340223 8.3454885
-0.94335967 -2.6911821 7.8091784
-1.9816952 -5.6877465 12.51762
-1.490091 -4.2936578 7.5041971
-0.66143155 -1.9102892 2.7516263
-0.81957716 -2.3723021 2.799191
-1.5126095 -4.4206314 4.6712074
-1.4000894 -4.098773 3.5748184
-0.67616957 -1.9806638 1.4567786
-0.68673229 -2.0138779 1.2003375
-1.2191046 -3.5770593 1.6151727
-1.1771518 -3.4559236 1.1630749
-1.1392022 -3.3483245 0.76295865
-1.1083268 -3.2575684 0.40186039
-1.4393998 -4.1875687 4.0250111
-1.3528048 -3.9400997 3.1168957
-0.68476069 -1.9955628 1.3253949
-0.7372402 -2.1521404 1.1391002
-1.1917205 -3.4807787 1.3696331
-1.153515 -3.3710935 0.95006174
-1.1093956 -3.2421503 0.57014859
-1.0927497 -3.1953084 0.22990032
-0.4134112 -1.1336162 7.6710916
-0.78258634 -2.2103949 7.5433369
-1.6322292 -4.6663938 9.1269951
-0.65787417 -1.8872393 3.0079987
-0.73596448 -2.1147628 2.757498
-0.17280847 -0.41147608 7.5567994
-0.72928774 -2.0362284 8.3648462
-0.95332444 -2.6894991 7.81387
-1.9414902 -5.5103779 12.144019
-1.4895229 -4.2441349 7.4274111
-0.66809565 -1.9079688 2.7516263
-0.81890702 -2.3438237 2.7697897
-1.5000385 -4.3344412 4.5870981
-1.3902378 -4.0239611 3.5151875
-0.6830793 -1.9782915 1.4567786
-0.69375789 -2.0114684 1.2003375
-1.2134534 -3.5201883 1.5926963
-1.1704572 -3.3973682 1.1461545
-1.1317016 -3.2885885 0.75176722
-1.1051066 -3.2112994 0.39783669
-1.4331653 -4.1225643 3.9684775
-1.3307494 -3.8322585 3.0374305
-0.6931358 -1.9972329 1.3279281
-0.74474806 -2.149554 1.1391002
-1.1868664 -3.4275134 1.3515544
-1.1477888 -3.31652 0.93716627
-1.109369 -3.2054999 0.56531376
-1.0891988 -3.1489813 0.22808653
-0.41602108 -1.1285213 7.6463957
-0.79080051 -2.2090552 7.5481091
-1.1815048 -3.3257184 8.3742113
-1.6053796 -4.5387411 8.8899841
-0.66539347 -1.8875853 3.0121319
-0.74334192 -2.1121809 2.757498
-0.17537685 -0.41352561 7.6067157
-0.73853129 -2.0395792 8.3890429
-0.96445358 -2.6910284 7.8279486
-1.8708475 -5.2513342 11.59037
-1.4990947 -4.2241626 7.4018149
-0.67475164 -1.905625 2.7516263
-0.82708353 -2.340951 2.7697897
-1.489241 -4.255126 4.5099983
-1.3773136 -3.9419196 3.44928
-0.69135928 -1.9798429 1.4595201
-0.70223397 -2.0132172 1.2026563
-1.2074202 -3.4634008 1.5702199
-1.1665252 -3.3479621 1.1320541
-1.1270273 -3.238225 0.742441
-1.0999401 -3.1603897 0.39336589
-1.424018 -4.050611 3.9052932
-1.3347434 -3.8008943 3.0168283
-0.70010322 -1.9948013 1.3279281
-0.75224686 -2.1469412 1.1391002
-1.1816553 -3.374325 1.3334758
-1.1433015 -3.2666156 0.92544305
-1.1058284 -3.1595414 0.55909771
-1.0853379 -3.1027181 0.22627275
-0.41860044 -1.123422 7.6216993
-0.79850668 -2.2062812 7.5481091
-1.1931065 -3.321574 8.3742113
-1.5728197 -4.3978038 8.6266394
-0.67197829 -1.8852512 3.0121319
-0.74963552 -2.1065536 2.7536604
-0.17681926 -0.41291094 7.6067157
-0.74564624 -2.036989 8.3890429
-0.97207737 -2.6827781 7.81387
-1.8353095 -5.0952597 11.261782
-1.5155925 -4.2238135 7.410347
-0.68241519 -1.9060949 2.7556162
-0.83410931 -2.334857 2.7661147
-1.4779085 -4.17594 4.4328985
-1.3703177 -3.8783686 3.3990648
-0.69826603 -1.9774175 1.4595201
-0.70925719 -2.0107536 1.2026563
-1.2025471 -3.4110711 1.5496166
-1.1606687 -3.2941015 1.1165438
-1.1220156 -3.1879351 0.73311478
-1.094432 -3.109556 0.38889509
-1.4131354 -3.9752536 3.838783
-1.3290669 -3.7428863 2.9756241
-0.7085039 -1.9964079 1.3304614
-0.75822073 -2.1400242 1.137002
-1.1760875 -3.3212152 1.3153973
-1.1384802 -3.216784 0.91371989
-1.1036327 -3.1183157 0.55357224
-1.0795015 -3.0518115 0.22425744
-0.42060125 -1.1168646 7.5871243
-0.80620319 -2.2034805 7.5481091
-1.2120297 -3.3375883 8.424839
-1.5449972 -4.2729173 8.3940191
-0.67950916 -1.8855413 3.0162647
-0.75698423 -2.103924 2.7536604
-0.17687757 -0.40911445 7.5468159
-0.75406104 -2.0379102 8.4035616
-0.98381048 -2.6858501 7.8326416
-1.793491 -4.92518 10.901685
-1.5285482 -4.213594 7.4018149
-0.6890645 -1.9037012 2.7556162
-0.84225446 -2.3319314 2.7661147
-1.4648398 -4.0935278 4.3522935
-1.3458712 -3.7672648 3.3080494
-0.70657033 -1.9789059 1.4622616
-0.71775985 -2.0124381 1.2049751
-1.1957667 -3.3544514 1.5271401
-1.1560605 -3.2448416 1.1024435
-1.1166664 -3.1377201 0.72378862
-1.0902522 -3.0634916 0.38487139
-1.4017444 -3.9000227 3.7722731
-1.3257337 -3.6925735 2.9403062
-0.71546835 -1.9939226 1.3304614
-0.76568627 -2.1373646 1.137002
-1.1717553 -3.2726319 1.2989621
-1.133325 -3.1670263 0.90199673
-1.0994945 -3.0724816 0.54735613
-1.0750055 -3.0056875 0.22244366
-0.42809245 -1.1248291 7.6513343
-0.81388986 -2.2006528 7.5481091
-1.521256 -4.1617756 8.1877327
-0.68705016 -1.885802 3.0203977
-0.76432371 -2.1012688 2.7536604
-0.17621504 -0.40373674 7.4569664
-0.76117009 -2.0352657 8.4035616
-1.0015695 -2.7050555 7.8983402
-1.7625411 -4.7881432 10.613606
-1.543247 -4.2082329 7.4018149
-0.69674098 -1.9041141 2.7596061
-0.84922636 -2.3257926 2.7624395
-1.454854 -4.0213194 4.2822027
-1.3497572 -3.7369184 3.2860804
-0.71347368 -1.9764276 1.4622616
-0.7247802 -2.0099204 1.2049751
-1.190178 -3.3022828 1.5065368
-1.1527483 -3.2001677 1.0897532
-1.112644 -3.0922039 0.71539503
-1.0857644 -3.0174944 0.38084766
-1.3834697 -3.8073745 3.6891356
-1.3151698 -3.6233327 2.8902726
-0.72242409 -1.991413 1.3304614
-0.77159685 -2.1304114 1.134904
-1.1670985 -3.2241197 1.2825271
-1.12949 -3.1219146 0.89144588
-1.0967345 -3.0313718 0.54183066
-1.0702009 -2.9596329 0.22062989
-0.43229532 -1.124053 7.6562738
-0.88066626 -2.3214338 11.9603
-0.82208937 -2.1991968 7.5528808
-1.5000788 -4.0598397 7.999002
-0.69362861 -1.8833922 3.0203977
-0.77054757 -2.0955796 2.7498231
-0.17762327 -0.40311918 7.4569664
-0.77049237 -2.038475 8.4277582
-1.0182648 -2.720937 7.9546537
-1.7162322 -4.6126184 10.240005
-1.5570207 -4.2003751 7.3975492
-0.70338339 -1.9016703 2.7596061
-0.85733974 -2.3228137 2.7624395
-1.4382573 -3.9324846 4.1945891
-1.3441021 -3.6809976 3.242142
-0.72180194 -1.9778529 1.4650031
-0.73179168 -2.0073781 1.2049751
-1.1842399 -3.2501945 1.4859334
-1.1474973 -3.1510499 1.0756528
-1.1083174 -3.0467544 0.70700145
-1.0809689 -2.9715664 0.37682396
-1.3838774 -3.7674742 3.6558807
-1.3055314 -3.558006 2.8431821
-0.73085529 -1.9929262 1.3329945
-0.7774682 -2.1234434 1.1328059
-1.1621174 -3.1756804 1.2660919
-1.1253543 -3.076869 0.88089502
-1.0920002 -2.9856682 0.53561455
-1.0668033 -2.9183412 0.21901764
-0.43790606 -1.1268823 7.6859097
-0.888035 -2.3164439 11.95051
-0.82976103 -2.1963136 7.5528808
-1.4807225 -3.9648335 7.8234377
-0.70118046 -1.8835967 3.0245306
-0.77785778 -2.0928771 2.7498231
-0.18174167 -0.40855736 7.5717745
-0.77536023 -2.0299022 8.4035616
-1.036304 -2.7399628 8.0203524
-1.6771498 -4.4598918 9.9159193
-1.5707581 -4.192472 7.3932829
-0.71001714 -1.8992037 2.7596061
-0.86544263 -2.3198071 2.7624395
-1.4334255 -3.8772659 4.1420212
-1.3380733 -3.6251621 3.1982033
-0.72870153 -1.9753213 1.4650031
-0.74032605 -2.0089681 1.2072939
-1.1795549 -3.2025387 1.4672031
-1.1435747 -3.1065094 1.0629625
-1.1036873 -3.0013733 0.69860786
-1.0758661 -2.9257095 0.37280026
-1.377525 -3.7101164 3.605998
-1.2912363 -3.4814222 2.7872617
-0.73780745 -1.990363 1.3329945
-0.78487563 -2.1207166 1.1328059
-1.1568127 -3.1273158 1.2496569
-1.1209179 -3.0318909 0.87034416
-1.0869603 -2.9400349 0.52939844
-1.0631306 -2.8771093 0.21740538
-0.44354174 -1.1296859 7.7155447
-0.89133316 -2.3009877 11.886872
-0.83742255 -2.193404 7.5528808
-1.1795685 -3.1120837 7.9001508
-1.4497268 -3.8408854 7.5908175
-0.70775115 -1.8811376 3.0245306
-0.78515857 -2.0901492 2.7498231
-0.18399861 -0.40976211 7.6067157
-0.78244126 -2.0271833 8.4035616
-1.0514076 -2.7508359 8.0625868
-1.6470766 -4.3339491 9.6503468
-1.5696825 -4.1455007 7.3207626
-0.71664226 -1.8967136 2.7596061
-0.87353498 -2.316772 2.7624395
-1.4132456 -3.7820415 4.0473981
-1.3316714 -3.5694149 3.1542652
-0.73559231 -1.9727656 1.4650031
-0.74733418 -2.0063715 1.2072939
-1.1729345 -3.1506112 1.4465997
-1.1376824 -3.0575395 1.0488622
-1.098754 -2.9560623 0.69021428
-1.0721917 -2.8845928 0.36922362
-1.3721013 -3.6563454 3.5594413
-1.2920301 -3.4466155 2.7637165
-0.74626309 -1.9918122 1.3355277
-0.79068339 -2.113713 1.130708
-1.1528383 -3.0834508 1.2348653
-1.1161815 -2.9869819 0.85979331
-1.0833489 -2.8991127 0.52387297
-1.0591834 -2.8359394 0.21579313
-0.44633573 -1.125242 7.6957879
-0.89935964 -2.2978623 11.886872
-0.84507382 -2.1904674 7.5528808
-1.4434924 -3.7843344 7.4898686
-0.7133131 -1.8760254 3.0203977
-0.79244977 -2.0873957 2.7498231
-0.78859895 -2.0220976 8.3938828
-1.0622469 -2.7503686 8.0719728
-1.6208284 -4.2204661 9.4117823
-1.5841434 -4.1399961 7.3207626
-0.72325873 -1.8942006 2.7596061
-0.88161677 -2.3137085 2.7624395
-1.4113188 -3.7370508 4.0053434
-1.32627 -3.5173986 3.1134653
-0.74394858 -1.9740987 1.4677445
-0.75589389 -2.0078964 1.2096127
-1.1692314 -3.1074476 1.4297423
-1.1331509 -3.0131392 1.0361719
-1.0952457 -2.9154212 0.68275332
-1.0682434 -2.8435373 0.36564696
-1.3649949 -3.5991666 3.5095584
-1.2868687 -3.3967266 2.7283986
-0.75321132 -1.9891952 1.3355277
-0.79645175 -2.1066949 1.1286099
-1.1485721 -3.0396521 1.2200737
-1.1128626 -2.9466903 0.85041475
-1.079465 -2.858252 0.51834756
-1.0549617 -2.7948329 0.21418089
-0.45055005 -1.1243984 7.7007275
-0.90887314 -2.298496 11.906453
-0.85271484 -2.1875041 7.5528808
-1.1645949 -3.0090327 7.6608205
-1.4386036 -3.7323432 7.3976974
-0.71985728 -1.8735241 3.0203977
-0.79973131 -2.0846169 2.7498231
-0.79519176 -2.018163 8.3890429
-1.071841 -2.746644 8.0719728
-1.6008968 -4.1254864 9.2137299
-1.5713081 -4.0638981 7.1970501
-0.72986627 -1.8916643 2.7596061
-0.88968766 -2.3106172 2.7624395
-1.4027371 -3.6754603 3.9457662
-1.319136 -3.461827 3.0695267
-0.75083494 -1.9714898 1.4677445
-0.76289815 -2.0052457 1.2096127
-1.1652416 -3.0643485 1.4128852
-1.1283237 -2.9688084 1.0234816
-1.0914671 -2.8748412 0.67529237
-1.0657895 -2.8072014 0.36251742
-1.3575065 -3.5420828 3.4596763
-1.2828201 -3.3506913 2.6960239
-0.76015031 -1.9865538 1.3355277
-0.80380064 -2.1039019 1.1286099
-1.1456989 -3.0003324 1.2069256
-1.1092763 -2.9064589 0.8410362
-1.077075 -2.8220806 0.51351279
-1.0522468 -2.7584584 0.21277018
-0.45418045 -1.1220986 7.6957879
-0.91462409 -2.2896364 11.877082
-0.86089253 -2.1859033 7.5576525
-1.1601481 -2.9667404 7.564167
-1.4368466 -3.6893599 7.3230829
-0.72639269 -1.8709999 3.0203977
-0.80700308 -2.0818126 2.7498231
-0.80223161 -2.0153751 8.3890429
-1.0947156 -2.7765987 8.1705208
-1.5795275 -4.0286708 9.0111752
-1.5646049 -4.0049462 7.1032
-0.7375595 -1.8919123 2.7635963
-0.89774781 -2.3074975 2.7624395
-1.3963095 -3.620631 3.8931983
-1.3116304 -3.4063487 3.0255885
-0.75921416 -1.9727595 1.470486
-0.77148283 -2.006705 1.2119315
-1.1626281 -3.0256431 1.3979009
-1.1249206 -2.9290266 1.0122013
-1.0891786 -2.8389099 0.668764
-1.0613111 -2.7662678 0.35894081
-1.3496363 -3.4850957 3.4097934
-1.2770076 -3.3009562 2.660706
-0.76863468 -1.9879088 1.3380609
-0.80950522 -2.0968494 1.1265118
-1.1408653 -2.9566648 1.192134
-1.1054229 -2.8662887 0.83165771
-1.072664 -2.7813411 0.50798732
-1.0474939 -2.7174757 0.21115793
-0.45838881 -1.1212256 7.7007275
-0.92146754 -2.2835972 11.862396
-0.86851752 -2.1828847 7.5576525
-1.1704969 -2.9626727 7.564167
-1.4470854 -3.6776361 7.3099165
-0.73291928 -1.8684529 3.0203977
-0.81426507 -2.0789828 2.7498231
-0.80926168 -2.0125625 8.3890429
-1.1050396 -2.7743638 8.1752138
-1.5542953 -3.9239597 8.7906151
-1.5632546 -3.9606459 7.034945
-0.74415898 -1.8893263 2.7635963
-0.90579706 -2.3043497 2.7624395
-1.3882214 -3.5625689 3.8371253
-1.3051652 -3.354593 2.9847887
-0.7660957 -1.9700973 1.470486
-0.77848285 -2.0039999 1.2119315
-1.1580806 -2.9826717 1.3810436
-1.1195184 -2.8848331 0.99951106
-1.0866523 -2.8030295 0.66223568
-1.0583602 -2.7300434 0.35581124
-1.3427458 -3.4316847 3.3632367
-1.2708635 -3.2513027 2.6253879
-0.77556908 -1.9852138 1.3380609
-0.81681955 -2.0940108 1.1265118
-1.1374563 -2.9174674 1.178986
-1.1030675 -2.8307102 0.82345146
-1.071578 -2.7498951 0.50384325
-1.0442814 -2.6812158 0.20974721
-0.46259654 -1.1203368 7.7056665
-0.87668872 -2.1812248 7.5624247
-1.1815556 -2.9603832 7.5687695
-1.4607985 -3.6747878 7.3143048
-0.73943692 -1.8658831 3.0203977
-0.82151717 -2.076128 2.7498231
-0.81628191 -2.0097253 8.3890429
-1.1044098 -2.7448747 8.1001291
-1.5234993 -3.8073492 8.5430489
-1.5770702 -3.9551651 7.034945
-0.75186366 -1.8895169 2.7675862
-0.91383523 -2.3011739 2.7624395
-1.3797454 -3.5046079 3.7810526
-1.2983549 -3.3029249 2.9439886
-0.77449697 -1.9713026 1.4732274
-0.78709185 -2.0053937 1.2142503
-1.1515546 -2.9354541 1.3623133
-1.1173236 -2.8496454 0.98964083
-1.0838891 -2.7672021 0.65570736
-1.0551696 -2.6938736 0.35268167
-1.3354989 -3.3783646 3.3166795
-1.2658736 -3.2054927 2.5930133
-0.78407687 -1.9865043 1.3405941
-0.8241241 -2.0911469 1.1265118
-1.1320571 -2.8739369 1.1641943
-1.0986967 -2.7906606 0.81407291
-1.0684714 -2.7138832 0.49900851
-1.0408285 -2.6450114 0.2083365
-0.46680364 -1.1194322 7.7106061
-0.88429725 -2.1781514 7.5624247
-1.1984574 -2.972548 7.6101923
-1.4727247 -3.6674442 7.3099165
-0.74699152 -1.8659031 3.0245306
-0.82875919 -2.0732477 2.7498231
-0.82376933 -2.0080266 8.3938828
-1.1081363 -2.726615 8.0578938
-1.5057777 -3.7253129 8.3720026
-1.5908668 -3.949636 7.034945
-0.75845474 -1.8868811 2.7675862
-0.92186224 -2.2979698 2.7624395
-1.3695638 -3.4434366 3.7214751
-1.2926366 -3.2549629 2.9063272
-0.78137338 -1.9685872 1.4732274
-0.79408723 -2.0026343 1.2142503
-1.1447133 -2.8883188 1.343583
-1.1131305 -2.8100488 0.97836059
-1.0790818 -2.726861 0.64824641
-1.0535719 -2.6623907 0.34999922
-1.3278966 -3.3251376 3.2701228
-1.2590816 -3.1560037 2.5576954
-0.79100627 -1.9837554 1.3405941
-0.82973969 -2.0840409 1.1244137
-1.1281141 -2.8348675 1.1510463
-1.0940599 -2.7506769 0.80469441
-1.0651268 -2.677927 0.49417377
-1.0389812 -2.613507 0.20712732
-0.47070837 -1.1177961 7.7106061
-0.89246148 -2.1764324 7.5671968
-1.2095633 -2.970156 7.6147947
-1.4855174 -3.6622813 7.3099165
-0.75350016 -1.8632841 3.0245306
-0.83479089 -2.0673699 2.7459855
-0.83125496 -2.0063002 8.3987226
-1.1110934 -2.7067664 8.0109663
-1.4891484 -3.6474788 8.2099581
-1.6036608 -3.9416428 7.0306792
-0.76617014 -1.8870138 2.7715764
-0.92987806 -2.2947381 2.7624395
-1.3603019 -3.3856888 3.6654024
-1.2865995 -3.2070813 2.8686657
-0.78979659 -1.9697288 1.475969
-0.80107284 -1.9998502 1.2142503
-1.1358339 -2.8369637 1.3229796
-1.1104568 -2.7749703 0.9684903
-1.0758295 -2.6911488 0.64171803
-1.0499189 -2.6263278 0.34686968
-1.3213359 -3.2754679 3.2268913
-1.2534708 -3.1103506 2.5253208
-0.79792607 -1.9809821 1.3405941
-0.83700925 -2.0811317 1.1244137
-1.1239123 -2.7958615 1.1378983
-1.0909697 -2.7152696 0.79648817
-1.0615442 -2.6420271 0.48933899
-1.0350651 -2.5774117 0.2057166
-0.47491151 -1.116861 7.7155447
-0.90062445 -2.1746831 7.571969
-1.2266127 -2.9821765 7.6562176
-1.4973841 -3.6548569 7.3055272
-0.76106381 -1.8632476 3.0286636
-0.84200227 -2.0644433 2.7459855
-0.83873844 -2.0045459 8.4035616
-1.1192132 -2.6996837 8.0015812
-1.4695045 -3.5637698 8.0344114
-1.6164187 -3.9336088 7.026413
-0.7727524 -1.8843279 2.7715764
-0.93788248 -2.2914782 2.7624395
-1.3466302 -3.318135 3.5988164
-1.2802441 -3.1592827 2.8310044
-0.7966674 -1.96696 1.475969
-0.80971026 -2.0011477 1.2165691
-1.1266102 -2.7857065 1.3023762
-1.1057541 -2.7354975 0.95721006
-1.0723412 -2.6554928 0.63518965
-1.0478916 -2.5949407 0.34418717
-1.3158538 -3.2293432 3.1869853
-1.2475564 -3.064775 2.4929457
-0.80483609 -1.9781848 1.3405941
-0.84256053 -2.0739927 1.1223158
-1.1212286 -2.7612944 1.1263937
-1.0876459 -2.6799183 0.78828198
-1.0577241 -2.6061859 0.48450425
-1.0327878 -2.546006 0.20450741
-0.47880718 -1.1151965 7.7155447
-0.90821004 -2.171526 7.571969
-1.2370149 -2.9778767 7.6562176
-1.509217 -3.6473949 7.3011379
-0.76863641 -1.8631811 3.0327964
-0.84798247 -2.0585279 2.7421479
-0.84573048 -2.001606 8.4035616
-1.123298 -2.6830263 7.9640393
-1.4333929 -3.44206 7.7733407
-1.6241413 -3.9134896 7.0008178
-0.78047836 -1.884403 2.7755663
-0.94587547 -2.2881904 2.7624395
-1.3419726 -3.2738171 3.5567617
-1.2735708 -3.1115673 2.7933426
-0.80511183 -1.9680371 1.4787103
-0.81669068 -1.9983093 1.2165691
-1.1152897 -2.730257 1.2798998
-1.1044163 -2.7049742 0.9487499
-1.0686172 -2.6198943 0.62866133
-1.0437775 -2.558989 0.34105763
-1.308645 -3.1798439 3.1437538
-1.2398026 -3.0155413 2.4576278
-0.81337482 -1.9793503 1.3431271
-0.84979504 -2.0710392 1.1223158
-1.1165258 -2.7224121 1.1132456
-1.0840887 -2.6446233 0.78007573
-1.0536669 -2.5704036 0.47966948
-1.030304 -2.5146475 0.20329823
-0.48269704 -1.1135182 7.7155447
-0.91636533 -2.1697173 7.5767403
-1.2451346 -2.9681361 7.6424098
-1.5173221 -3.6310554 7.279192
-0.77621776 -1.8630843 3.0369296
-0.85516292 -2.0555556 2.7421479
-0.85320556 -1.9997977 8.4084015
-1.1326568 -2.6790888 7.9640393
-1.435272 -3.4129555 7.719327
-1.630735 -3.890959 6.9709554
-0.78705144 -1.8816671 2.7755663
-0.95385706 -2.2848747 2.7624395
-1.3274728 -3.206507 3.4901752
-1.2680674 -3.0675352 2.7588196
-0.81197661 -1.9652148 1.4787103
-0.82535136 -1.9995412 1.2188879
-1.1053641 -2.6792068 1.2592964
-1.1010501 -2.6700592 0.93887961
-1.064658 -2.5843549 0.62213302
-1.0413221 -2.5277028 0.33837515
-1.3025399 -3.1338828 3.1038477
-1.2332705 -2.9701324 2.4252529
-0.82027912 -1.9764992 1.3431271
-0.85528147 -2.0638671 1.1202177
-1.1133722 -2.687959 1.1017411
-1.0802983 -2.6093862 0.77186948
-1.0512671 -2.5392573 0.47552541
-1.0276139 -2.4833379 0.20208904
-0.486581 -1.1118265 7.7155447
-0.92393345 -2.1665053 7.5767403
-1.249391 -2.9493804 7.6055894
-1.5225382 -3.6080842 7.2440796
-0.78380775 -1.862957 3.0410624
-0.86233294 -2.0525579 2.7421479
-0.86067837 -1.9979616 8.4132414
-1.1345479 -2.657661 7.9124188
-1.4207971 -3.3458087 7.5797887
-1.6331255 -3.858824 6.9240308
-0.79478735 -1.8816839 2.7795563
-0.96182692 -2.2815313 2.7624395
-1.3276523 -3.1755321 3.4621389
-1.2622724 -3.0235801 2.7242968
-0.82044178 -1.9662273 1.4814519
-0.83232605 -1.9966481 1.2188879
-1.0933127 -2.6239803 1.2368201
-1.0974538 -2.635201 0.92900944
-1.0623509 -2.5534105 0.61653727
-1.0386612 -2.4964652 0.3356927
-1.2961302 -3.0880034 3.0639415
-1.2264367 -2.9248066 2.3928783
-0.82883972 -1.9775995 1.3456604
-0.86072838 -2.0566826 1.1181196
-1.109992 -2.6535616 1.0902365
-1.0762756 -2.5742085 0.76366329
-1.0467528 -2.5035906 0.47069064
-1.024718 -2.4520781 0.20087986
-0.490459 -1.1101213 7.7155447
-0.9314903 -2.1632671 7.5767403
-1.2619838 -2.9503901 7.6193976
-1.524796 -3.5785117 7.1958003
-0.79140645 -1.8627999 3.0451953
-0.86949247 -2.0495353 2.7421479
-0.86764735 -1.994945 8.4132414
