# .PCD v0.7 - Point Cloud Data file format
VERSION 0.7
FIELDS x y z
SIZE 4 4 4
TYPE F F F
COUNT 1 1 1
WIDTH 1435
HEIGHT 1
VIEWPOINT 0 0 0 1 0 0 0
POINTS 1435
DATA ascii
-0.077385232 0.027700109 7.9139719
-1.2279751 0.082344607 7.8242087
-1.211823 0.075595163 5.8608475
-1.0936401 0.062912032 3.5491862
-1.0349215 0.057028141 2.5013902
-0.96415126 0.051794004 1.8367344
-0.93924123 0.049485311 1.4540101
-0.91415888 0.047692347 1.1726087
-0.4616996 0.053307544 7.8762655
-0.84427023 0.06571833 7.8547873
-1.140098 0.069753312 4.4352341
-1.0656052 0.061689358 2.9568574
-1.0058396 0.056315921 2.1468236
-0.94437963 0.051732298 1.6172085
-0.91435659 0.04945793 1.2872872
-0.90166616 0.048152208 1.0571631
-0.89801925 0.04528816 0.9633975
-0.87773025 0.043813474 0.7910074
-0.86249387 0.042906538 0.65078765
-0.86862272 0.042915419 0.54179835
-0.85742861 0.042217195 0.43516198
-0.84839815 0.041629091 0.3396157
-0.84880584 0.041357253 0.25281543
-0.85035628 0.041435383 0.16937928
-0.88724118 0.045991264 0.872437
-0.87451833 0.045032814 0.72116315
-0.87143236 0.044726439 0.59837258
-0.85778844 0.043583132 0.48450777
-0.84474927 0.042777646 0.38352761
-0.84967589 0.04288369 0.2959086
-0.84560061 0.042680535 0.21030425
-0.84298956 0.042406365 0.12772413
-0.077288076 0.027970064 7.9139719
-1.2276802 0.086630538 7.8242087
-1.2115517 0.079824746 5.8608475
-1.0934138 0.066729166 3.5491862
-1.0347162 0.060640346 2.5013902
-0.96396458 0.0551592 1.8367344
-0.93906283 0.052763574 1.4540101
-0.91398692 0.05088307 1.1726087
-0.46151072 0.054918848 7.8762655
-0.84403569 0.068664983 7.8547873
-1.1398476 0.073732577 4.4352341
-1.063661 0.065302685 2.9521646
-1.0056368 0.059826609 2.1468236
-0.94679683 0.055180427 1.6214744
-0.91417837 0.052649327 1.2872872
-0.9014926 0.051299319 1.0571631
-0.89785576 0.048422556 0.9633975
-0.877572 0.046877056 0.7910074
-0.86233884 0.045916941 0.65078765
-0.86846757 0.045947216 0.54179835
-0.86190546 0.045454163 0.43703499
-0.84824765 0.044590298 0.3396157
-0.8486563 0.044319887 0.25281543
-0.85020649 0.04440343 0.16937928
-0.88707525 0.049088039 0.872437
-0.87435579 0.048085175 0.72116315
-0.8712709 0.04776803 0.59837258
-0.85763109 0.046577107 0.48450777
-0.84930998 0.045981478 0.38517112
-0.85922825 0.046373375 0.29825324
-0.84544653 0.045631971 0.21030425
-0.84782511 0.045617122 0.12792566
-0.077189967 0.02823968 7.9139719
-1.2273704 0.090915419 7.8242087
-1.2112657 0.084053375 5.8608475
-1.0931742 0.070545487 3.5491862
-1.036448 0.064373113 2.5059927
-0.96376622 0.058523729 1.8367344
-0.93887287 0.056041189 1.4540101
-0.9138037 0.05407317 1.1726087
-0.4613162 0.056529488 7.8762655
-0.84379089 0.071610801 7.8547873
-1.1395832 0.077710934 4.4352341
-1.0634265 0.06901516 2.9521646
-1.0032493 0.063199505 2.1423223
-0.94659847 0.058485027 1.6214744
-0.91398907 0.055840082 1.2872872
-0.901308 0.054445803 1.0571631
-0.89768124 0.051556364 0.9633975
-0.87740302 0.049940068 0.7910074
-0.86217332 0.048926786 0.65078765
-0.86830193 0.048978452 0.54179835
-0.86174154 0.048462495 0.43703499
-0.84808683 0.047550965 0.3396157
-0.85340112 0.047555335 0.25374803
-0.85004634 0.047370933 0.16937928
-0.88689852 0.052184209 0.872437
-0.87418264 0.051136956 0.72116315
-0.87109888 0.050809041 0.59837258
-0.8574633 0.049570516 0.48450777
-0.84914434 0.048945844 0.38517112
-0.86391371 0.049651306 0.29942557
-0.84528208 0.048582852 0.21030425
-0.84766072 0.048576307 0.12792566
-0.077090919 0.02850895 7.9139719
-1.2270455 0.095199183 7.8242087
-1.2109648 0.088280961 5.8608475
-1.0929214 0.074360944 3.5491862
-1.0362171 0.067990601 2.5059927
-0.96594608 0.062041268 1.8411236
-0.93867153 0.059318125 1.4540101
-0.91360939 0.057262611 1.1726087
-0.46111608 0.058139436 7.8762655
-0.84353572 0.074555747 7.8547873
-1.1405587 0.081778429 4.440073
-1.0649008 0.072844766 2.9568574
-1.0030226 0.066701114 2.1423223
-0.94899106 0.061959036 1.6257404
-0.91378856 0.05903016 1.2872872
-0.9011125 0.057591625 1.0571631
-0.89749581 0.054689541 0.9633975
-0.87722331 0.053002473 0.7910074
-0.86199725 0.051936034 0.65078765
-0.87254757 0.052274127 0.54411715
-0.86156714 0.051470239 0.43703499
-0.84791565 0.050511047 0.3396157
-0.85322994 0.050533969 0.25374803
-0.84490454 0.050043385 0.1689322
-0.88671094 0.055279743 0.872437
-0.87399882 0.05418811 0.72116315
-0.86661357 0.053583261 0.59583938
-0.86181498 0.052841175 0.48660582
-0.84896833 0.051909611 0.38517112
-0.86858672 0.052962516 0.30059788
-0.84510738 0.051533144 0.21030425
-0.84748602 0.051534899 0.12792566
-0.07699094 0.028777875 7.9139719
-1.2267057 0.099481784 7.8242087
-1.2106494 0.092507482 5.8608475
-1.0926552 0.0781755 3.5491862
-1.0379225 0.071742184 2.5105953
-0.96572363 0.065412663 1.8411236
-0.93565106 0.062406868 1.4498771
-0.91340393 0.060451355 1.1726087
-0.46119654 0.059786413 7.8812571
-0.8432703 0.077499777 7.8547873
-1.1402664 0.08575923 4.440073
-1.06464 0.076561518 2.9568574
-1.0027835 0.070201911 2.1423223
-0.94876903 0.065271258 1.6257404
-0.91357696 0.062219515 1.2872872
-0.90090597 0.060736738 1.0571631
-0.89729941 0.057822049 0.9633975
-0.877033 0.056064233 0.7910074
-0.86181068 0.054944649 0.65078765
-0.87235975 0.05531957 0.54411715
-0.86138219 0.054477356 0.43703499
-0.84773421 0.053470518 0.3396157
-0.85795093 0.053819578 0.25468066
-0.84472471 0.052992348 0.1689322
-0.88651258 0.058374606 0.872437
-0.87380433 0.057238609 0.72116315
-0.86211967 0.056326792 0.59330624
-0.86162531 0.05584915 0.48660582
-0.85349429 0.05517748 0.38681462
-0.87809765 0.05661976 0.30294251
-0.8449223 0.054482799 0.21030425
-0.84231532 0.054172207 0.12772413
-0.07685025 0.029028486 7.9089723
-1.226351 0.10376319 7.8242087
-1.210319 0.09673287 5.8608475
-1.0923755 0.08198911 3.5491862
-1.0396142 0.075506486 2.5151978
-0.96548939 0.068783268 1.8411236
-0.93542749 0.065672517 1.4498771
-0.91318738 0.063639358 1.1726087
-0.46069896 0.061357196 7.8762655
-0.84299469 0.080442876 7.8547873
-1.1399601 0.08973898 4.440073
-1.0643662 0.080277339 2.9568574
-1.0025325 0.073701851 2.1423223
-0.95113659 0.06877096 1.6300063
-0.91335422 0.065408118 1.2872872
-0.90068847 0.063881122 1.0571631
-0.8970921 0.060953859 0.9633975
-0.87683189 0.059125304 0.7910074
-0.86161363 0.057952598 0.65078765
-0.87658125 0.058660228 0.54643595
-0.8611868 0.057483811 0.43703499
-0.84754241 0.056429341 0.3396157
-0.85775787 0.05681406 0.25468066
-0.84453458 0.055940665 0.1689322
-0.88630342 0.061468754 0.872437
-0.87359923 0.060288407 0.72116315
-0.86191779 0.059335813 0.59330624
-0.8614251 0.058856443 0.48660582
-0.85329652 0.058156393 0.38681462
-0.87789464 0.059684552 0.30294251
-0.84472698 0.057431802 0.21030425
-0.84212106 0.057112101 0.12772413
-0.076748461 0.029296568 7.9089723
-1.2267553 0.10811171 7.8291483
-1.2099741 0.10095708 5.8608475
-1.0920827 0.085801706 3.5491862
-1.0412922 0.079283483 2.5198004
-0.96763182 0.072331786 1.8455126
-0.93238616 0.068730295 1.4457443
-0.91295964 0.066826589 1.1726087
-0.46048197 0.062964961 7.8762655
-0.84270877 0.083384976 7.8547873
-1.1396399 0.093717635 4.440073
-1.0640795 0.083992183 2.9568574
-1.002269 0.07720089 2.1423223
-0.95089072 0.072090633 1.6300063
-0.916125 0.068821847 1.2912773
-0.90046 0.067024715 1.0571631
-0.9004311 0.06433928 0.96690202
-0.87662017 0.06218566 0.7910074
-0.86140615 0.060959835 0.65078765
-0.8763712 0.061719716 0.54643595
-0.85635644 0.060164567 0.43516198
-0.84255493 0.059052009 0.33820567
-0.86245465 0.060149647 0.2556133
-0.84433419 0.058888298 0.1689322
-0.88235962 0.064290658 0.86911154
-0.8733834 0.063337468 0.72116315
-0.85740584 0.062032882 0.59077305
-0.85668761 0.061537739 0.48450777
-0.84837818 0.06079698 0.38517112
-0.88252926 0.063095286 0.30411482
-0.8445214 0.060380097 0.21030425
-0.84191656 0.060051303 0.12772413
-0.07660608 0.029546048 7.9039726
-1.2271442 0.11246434 7.8340874
-1.2096142 0.10518007 5.8608475
-1.0902889 0.08949095 3.5444143
-1.0429566 0.083073102 2.5244026
-0.96737337 0.075709008 1.8455126
-0.93214053 0.071984507 1.4457443
-0.9127208 0.070013002 1.1726087
-0.46025938 0.064571954 7.8762655
-0.84241253 0.086326078 7.8547873
-1.1393058 0.097695149 4.440073
-1.06378 0.087706 2.9568574
-1.0019935 0.080698997 2.1423223
-0.95063329 0.07540942 1.6300063
-0.91587925 0.072019301 1.2912773
-0.90022051 0.070167504 1.0571631
-0.90020102 0.06748198 0.96690202
-0.87639779 0.065245256 0.7910074
-0.86118811 0.063966334 0.65078765
-0.87615037 0.06477844 0.54643595
-0.85614121 0.063153438 0.43516198
-0.84234369 0.061992712 0.33820567
-0.86223948 0.063159809 0.2556133
-0.84909016 0.062199071 0.16937928
-0.88212979 0.067370266 0.86911154
-0.87315702 0.066385753 0.72116315
-0.85718405 0.065025412 0.59077305
-0.8564676 0.064527765 0.48450777
-0.84816074 0.063758001 0.38517112
-0.8823036 0.066175506 0.30411482
-0.84430546 0.063327663 0.21030425
-0.83671987 0.062616929 0.1275226
-0.07650248 0.029813275 7.9039726
-1.2267443 0.11674719 7.8340874
-1.2092397 0.10940177 5.8608475
-1.0899699 0.09329623 3.5444143
-1.0426602 0.086713195 2.5244026
-0.96949023 0.079280719 1.8499017
-0.93188357 0.075237848 1.4457443
-0.91566581 0.073455073 1.1764462
-0.46031684 0.066219896 7.8812571
-0.84263617 0.089322582 7.8597589
-1.1402098 0.10178342 4.4449124
-1.0634673 0.091418751 2.9568574
-0.99953645 0.084013574 2.1378212
-0.94776517 0.078511782 1.6257404
-0.91562223 0.075215876 1.2912773
-0.89997011 0.073309436 1.0571631
-0.89995992 0.07062386 0.96690202
-0.87616467 0.068304062 0.7910074
-0.86095959 0.066972047 0.65078765
-0.87591892 0.067836381 0.54643595
-0.85591555 0.066141546 0.43516198
-0.8421222 0.064932667 0.33820567
-0.8620137 0.066169202 0.2556133
-0.84886783 0.065162569 0.16937928
-0.88188922 0.070449069 0.86911154
-0.87291998 0.069433242 0.72116315
-0.85695183 0.068017147 0.59077305
-0.85623711 0.067516997 0.48450777
-0.84793311 0.066718243 0.38517112
-0.87722152 0.068874404 0.30294251
-0.84407926 0.066274457 0.21030425
-0.83649617 0.065537244 0.1275226
-0.076397948 0.030080136 7.9039726
-1.2263292 0.12102861 7.8340874
-1.2088504 0.11362214 5.8608475
-1.0896375 0.097100362 3.5444143
-1.0423511 0.09035223 2.5244026
-0.9715938 0.082868122 1.8542906
-0.93161529 0.078490272 1.4457443
-0.91540384 0.076650895 1.1764462
-0.46008289 0.067826301 7.8812571
-0.84231925 0.092263386 7.8597589
-1.1398475 0.10576288 4.4449124
-1.0631417 0.095130391 2.9568574
-0.99923706 0.087502092 2.1378212
-0.94748539 0.081819616 1.6257404
-0.91535407 0.078411534 1.2912773
-0.89970875 0.076450467 1.0571631
-0.89970791 0.073764876 0.96690202
-0.87592089 0.071362033 0.7910074
-0.86072052 0.069976948 0.65078765
-0.87567681 0.070893496 0.54643595
-0.85567945 0.069128849 0.43516198
-0.84189039 0.067871824 0.33820567
-0.85688096 0.068784691 0.25468066
-0.8486352 0.068125278 0.16937928
-0.88163799 0.073527008 0.86911154
-0.87267232 0.072479874 0.72116315
-0.85670918 0.071008056 0.59077305
-0.85599625 0.07050541 0.48450777
-0.84769499 0.069677681 0.38517112
-0.87697572 0.071936056 0.30294251
-0.84877825 0.069625333 0.21099493
-0.83626229 0.068456762 0.1275226
-0.076253042 0.030327978 7.8989725
-1.2258993 0.12530856 7.8340874
-1.2084465 0.11784112 5.8608475
-1.0892919 0.10090332 3.5444143
-1.0400838 0.093814462 2.5198004
-0.97129864 0.086259112 1.8542906
-0.93133557 0.081741735 1.4457443
-0.91513073 0.079845779 1.1764462
-0.46012866 0.069475591 7.8862491
-0.84199208 0.095203072 7.8597589
-1.1394714 0.10974105 4.4449124
-1.0628031 0.098840863 2.9568574
-0.99892557 0.090989552 2.1378212
-0.94459641 0.084892809 1.6214744
-0.91807616 0.081874102 1.2952673
-0.89943641 0.079590566 1.0571631
-0.89589167 0.076600991 0.9633975
-0.8756665 0.074419126 0.7910074
-0.86047107 0.072981 0.65078765
-0.87542403 0.073949747 0.54643595
-0.86005241 0.072504833 0.43703499
-0.84642845 0.071212396 0.3396157
-0.8517406 0.071365148 0.25374803
-0.84839225 0.071087152 0.16937928
-0.88509566 0.07692752 0.872437
-0.87241393 0.075525627 0.72116315
-0.85645616 0.073998094 0.59077305
-0.8557449 0.073492967 0.48450777
-0.84744662 0.072636262 0.38517112
-0.8767193 0.074996836 0.30294251
-0.84853005 0.072587706 0.21099493
-0.83601826 0.071375437 0.1275226
-0.076186091 0.030612757 7.9039726
-1.2246816 0.12950508 7.8291483
-1.2080277 0.12205867 5.8608475
-1.0889331 0.10470504 3.5444143
-1.0397499 0.097444452 2.5198004
-0.97337651 0.089869455 1.8586799
-0.93104458 0.084992208 1.4457443
-0.91484642 0.083039694 1.1764462
-0.45988336 0.071081318 7.8862491
-0.8416546 0.098141588 7.8597589
-1.1390814 0.11371788 4.4449124
-1.0624516 0.10255014 2.9568574
-0.99860185 0.094475903 2.1378212
-0.94429433 0.08818955 1.6214744
-0.91778475 0.085078284 1.2952673
-0.89915311 0.082729705 1.0571631
-0.89561886 0.079727769 0.9633975
-0.87540138 0.077475317 0.7910074
-0.85604578 0.075616091 0.64804614
-0.8707478 0.076616697 0.54411715
-0.85979402 0.075506538 0.43703499
-0.84617472 0.074166551 0.3396157
-0.85148627 0.074337848 0.25374803
-0.84813893 0.074048162 0.16937928
-0.88482177 0.080016613 0.872437
-0.872145 0.078570463 0.72116315
-0.85619259 0.076987237 0.59077305
-0.85548317 0.076479621 0.48450777
-0.84718788 0.075593956 0.38517112
-0.87161076 0.077625468 0.30177018
-0.84827149 0.075549178 0.21099493
-0.83576399 0.074293256 0.1275226
-0.076078765 0.03087851 7.9039726
-1.2242222 0.13377923 7.8291483
-1.2075944 0.12627472 5.8608475
-1.0885609 0.10850548 3.5444143
-1.0394034 0.10107327 2.5198004
-0.97305685 0.093266629 1.8586799
-0.93354374 0.088507444 1.4498771
-0.91455102 0.086232603 1.1764462
-0.45963246 0.072686173 7.8862491
-0.84130692 0.10107891 7.8597589
-1.1386775 0.11769332 4.4449124
-1.0638043 0.10643016 2.96155
-1.0004325 0.098173901 2.1423223
-0.94398069 0.091485217 1.6214744
-0.9174822 0.08828143 1.2952673
-0.89885885 0.08586783 1.0571631
-0.89533508 0.082853578 0.9633975
-0.87900156 0.080887407 0.79414582
-0.85577661 0.078603789 0.64804614
-0.87047499 0.079655714 0.54411715
-0.85952526 0.078507319 0.43703499
-0.84591067 0.077119797 0.3396157
-0.84632945 0.076865278 0.25281543
-0.8478753 0.077008262 0.16937928
-0.88825446 0.083454162 0.87576252
-0.87186545 0.081614338 0.72116315
-0.85591865 0.079975434 0.59077305
-0.85521096 0.079465352 0.48450777
-0.84691888 0.078550741 0.38517112
-0.87133449 0.080667481 0.30177018
-0.84800261 0.078509741 0.21099493
-0.83549953 0.077210158 0.1275226
-0.076009765 0.031162953 7.9089723
-1.2237477 0.13805175 7.8291483
-1.2071462 0.13048925 5.8608475
-1.0881755 0.11230461 3.5444143
-1.0390443 0.10470086 2.5198004
-0.97510856 0.096899688 1.8630688
-0.93322909 0.091765583 1.4498771
-0.91424441 0.089424454 1.1764462
-0.45937592 0.074290149 7.8862491
-0.84094894 0.10401501 7.8597589
-1.1382598 0.12166733 4.4449124
-1.0634263 0.11014288 2.96155
-1.0000837 0.10166546 2.1423223
-0.94365567 0.094779767 1.6214744
-0.91716844 0.091483504 1.2952673
-0.89855367 0.089004911 1.0571631
-0.89504045 0.085978381 0.9633975
-0.87871391 0.083955199 0.79414582
-0.85549706 0.081590526 0.64804614
-0.87019169 0.082693756 0.54411715
-0.85924596 0.081507139 0.43703499
-0.85041201 0.080524385 0.34102574
-0.84605604 0.079819053 0.25281543
-0.84760135 0.079967432 0.16937928
-0.88795775 0.086554244 0.87576252
-0.8715753 0.084657215 0.72116315
-0.85563427 0.082962662 0.59077305
-0.85492837 0.082450114 0.48450777
-0.84663951 0.08150655 0.38517112
-0.87104762 0.083708517 0.30177018
-0.84279406 0.080995575 0.21030425
-0.83522493 0.080126137 0.1275226
-0.075939707 0.031447288 7.9139719
-1.2224865 0.1422326 7.8242087
-1.2066834 0.13470218 5.8608475
-1.087777 0.11610238 3.5444143
-1.0386724 0.10832715 2.5198004
-0.97476435 0.10030287 1.8630688
-0.93570256 0.095307946 1.4540101
-0.91392666 0.092615217 1.1764462
-0.45882908 0.075845517 7.8812571
-0.84058076 0.10694984 7.8597589
-1.1378281 0.12563986 4.4449124
-1.0630354 0.11385425 2.96155
-0.99972266 0.10515579 2.1423223
-0.94331902 0.098073155 1.6214744
-0.91684353 0.094684467 1.2952673
-0.89823747 0.092140906 1.0571631
-0.89473486 0.089102127 0.9633975
-0.87841547 0.087021969 0.79414582
-0.85520703 0.084576264 0.64804614
-0.86989772 0.085730784 0.54411715
-0.85895628 0.084505975 0.43703499
-0.85012573 0.083492383 0.34102574
-0.84577227 0.082771853 0.25281543
-0.84731704 0.082925625 0.16937928
-0.88765019 0.089653268 0.87576252
-0.87127447 0.087699063 0.72116315
-0.85533947 0.085948877 0.59077305
-0.85463536 0.085433871 0.48450777
-0.84634984 0.084461384 0.38517112
-0.86591339 0.086266614 0.30059788
-0.84250617 0.083936982 0.21030425
-0.8349402 0.083041117 0.1275226
-0.075868577 0.031731516 7.9189715
-1.2219826 0.14649901 7.8242087
-1.2062058 0.13891347 5.8608475
-1.0888488 0.12006252 3.5491862
-1.0402303 0.11216176 2.5244026
-0.97440833 0.10370481 1.8630688
-0.93536419 0.098573573 1.4540101
-0.91041011 0.095470369 1.1726087
-0.45856154 0.077446669 7.8812571
-0.84020233 0.10988335 7.8597589
-1.1373826 0.12961085 4.4449124
-1.0626314 0.11756425 2.96155
-0.99934953 0.10864483 2.1423223
-0.94297099 0.10136536 1.6214744
-0.91650742 0.097884275 1.2952673
-0.89791036 0.095275782 1.0571631
-0.89441836 0.092224792 0.9633975
-0.87810636 0.090087682 0.79414582
-0.85490662 0.087560982 0.64804614
-0.8695932 0.088766776 0.54411715
-0.85865605 0.087503776 0.43703499
-0.84505677 0.085973762 0.3396157
-0.84547812 0.085723639 0.25281543
-0.84206778 0.085380413 0.1689322
-0.8836183 0.092362851 0.872437
-0.87096304 0.090739846 0.72116315
-0.85503423 0.088934042 0.59077305
-0.85433191 0.088416584 0.48450777
-0.84604985 0.087415181 0.38517112
-0.86560702 0.089288697 0.30059788
-0.84220809 0.086877361 0.21030425
-0.83464521 0.085955106 0.1275226
-0.075796403 0.032015633 7.9239717
-1.2214638 0.15076363 7.8242087
-1.2057135 0.14312308 5.8608475
-1.088423 0.12386257 3.5491862
-1.0417743 0.11600859 2.5290053
-0.97165984 0.10684352 1.8586799
-0.93501437 0.10183801 1.4540101
-0.91007131 0.098647714 1.1726087
-0.458004 0.078997195 7.8762655
-0.83928531 0.11274429 7.8547873
-1.1369233 0.13358027 4.4449124
-1.0605 0.12107685 2.9568574
-0.99896425 0.11213254 2.1423223
-0.94520348 0.10494433 1.6257404
-0.91616017 0.10108288 1.2952673
-0.89757234 0.098409489 1.0571631
-0.89054489 0.094967991 0.95989293
-0.87778652 0.0931523 0.79414582
-0.85459578 0.090544626 0.64804614
-0.86927801 0.091801673 0.54411715
-0.85834539 0.090500511 0.43703499
-0.84475148 0.088923037 0.3396157
-0.85005921 0.089187004 0.25374803
-0.84176469 0.088319264 0.1689322
-0.88329047 0.095446691 0.872437
-0.87465966 0.094212547 0.72410631
-0.85471863 0.091918126 0.59077305
-0.85401809 0.091398217 0.48450777
-0.84104425 0.089866124 0.38352761
-0.86529005 0.092309684 0.30059788
-0.83697557 0.089291319 0.20961356
-0.8343401 0.088868029 0.1275226
-0.075684182 0.032280013 7.9239717
-1.2209301 0.15502642 7.8242087
-1.2052066 0.14733092 5.8608475
-1.0879841 0.12766112 3.5491862
-1.0413629 0.11964435 2.5290053
-0.97128099 0.1102346 1.8586799
-0.93465322 0.1051012 1.4540101
-0.90972137 0.10182385 1.1726087
-0.45772547 0.080595441 7.8762655
-0.83888662 0.11567327 7.8547873
-1.1364501 0.13754806 4.4449124
-1.060071 0.12477795 2.9568574
-0.99856675 0.1156189 2.1423223
-0.94742244 0.1085401 1.6300063
-0.91580176 0.10428026 1.2952673
-0.89722335 0.101542 1.0571631
-0.89020795 0.098075986 0.95989293
-0.87358689 0.095791355 0.7910074
-0.8584311 0.093982399 0.65078765
-0.86895227 0.094835468 0.54411715
-0.85341561 0.092993863 0.43516198
-0.84443593 0.091871232 0.3396157
-0.84974271 0.092153721 0.25374803
-0.84145123 0.091257028 0.1689322
-0.88295192 0.098529376 0.872437
-0.87432545 0.097265102 0.72410631
-0.85439253 0.094901092 0.59077305
-0.85369384 0.09437874 0.48450777
-0.84072542 0.092801362 0.38352761
-0.86496258 0.095329545 0.30059788
-0.83665878 0.092212364 0.20961356
-0.83402479 0.09177988 0.1275226
-0.075493224 0.03250451 7.9139719
-1.2211519 0.15938807 7.8291483
-1.2056952 0.15166424 5.8657427
-1.0890138 0.13163745 3.5539584
-1.042879 0.12350862 2.5336077
-0.97089028 0.11362433 1.8586799
-0.93428063 0.10836311 1.4540101
-0.91254449 0.1053666 1.1764462
-0.45715734 0.082141042 7.871274
-0.83847773 0.11860081 7.8547873
-1.1372104 0.14166977 4.4497519
-1.059629 0.12847753 2.9568574
-0.99815702 0.11910384 2.1423223
-0.94962782 0.11215266 1.6342722
-0.91543216 0.10747637 1.2952673
-0.8968634 0.10467328 1.0571631
-0.88986015 0.1011828 0.95989293
-0.87324721 0.098840155 0.7910074
-0.85809779 0.096978307 0.65078765
-0.86861598 0.097868092 0.54411715
-0.85308582 0.095972277 0.43516198
-0.84411013 0.094818301 0.3396157
-0.84941584 0.095119312 0.25374803
-0.84112751 0.094193682 0.1689322
-0.88260263 0.10161085 0.872437
-0.87398064 0.10031648 0.72410631
-0.85833889 0.09837389 0.59330624
-0.85335922 0.097358115 0.48450777
-0.84039634 0.095735475 0.38352761
-0.85979503 0.097798847 0.29942557
-0.83633178 0.095132284 0.20961356
-0.83369935 0.094690613 0.1275226
-0.075340472 0.032747947 7.9089723
-1.2205882 0.16364971 7.8291483
-1.2061683 0.15600276 5.8706384
-1.0885476 0.13543802 3.5539584
-1.0424415 0.1271482 2.5336077
-0.96810985 0.11672577 1.8542906
-0.93110263 0.11128953 1.4498771
-0.91217107 0.10855133 1.1764462
-0.45686781 0.08373633 7.871274
-0.83753115 0.12145016 7.8498158
-1.136709 0.1456385 4.4497519
-1.0608864 0.13238944 2.96155
-0.9977352 0.12258733 2.1423223
-0.94923055 0.1154668 1.6342722
-0.9150514 0.11067117 1.2952673
-0.8964926 0.10780328 1.0571631
-0.89304352 0.10470383 0.9633975
-0.87289685 0.10188776 0.7910074
-0.85775405 0.09997303 0.65078765
-0.86386883 0.10038808 0.54179835
-0.85274559 0.098949514 0.43516198
-0.84377396 0.097764216 0.3396157
-0.84907866 0.098083749 0.25374803
-0.84079361 0.097129196 0.1689322
-0.88224256 0.10469109 0.872437
-0.8736251 0.10336663 0.72410631
-0.85799021 0.10136945 0.59330624
-0.84850669 0.099805996 0.48240969
-0.84005708 0.098668434 0.38352761
-0.85944843 0.1007995 0.29942557
-0.8359946 0.098051049 0.20961356
-0.83336377 0.097600192 0.1275226
-0.07507062 0.032930657 7.8889728
-1.2200094 0.16790935 7.8291483
-1.2056164 0.16021213 5.8706384
-1.0880681 0.13923694 3.5539584
-1.0361761 0.13005571 2.5198004
-0.96769649 0.12010439 1.8542906
-0.93070853 0.114539 1.4498771
-0.91178668 0.11173474 1.1764462
-0.45657274 0.085330583 7.871274
-0.83710212 0.12437295 7.8498158
-1.1361936 0.14960547 4.4497519
-1.0604178 0.13609181 2.96155
-0.99730128 0.12606934 2.1423223
-0.95140952 0.11910369 1.6385381
-0.9146595 0.11386462 1.2952673
-0.89611083 0.11093196 1.0571631
-0.8926726 0.1078205 0.9633975
-0.87253588 0.10493411 0.7910074
-0.86155146 0.10346527 0.65352911
-0.86351317 0.10340293 0.54179835
-0.85239506 0.10192555 0.43516198
-0.8434276 0.10070894 0.3396157
-0.8487311 0.10104699 0.25374803
-0.84044945 0.10006353 0.1689322
-0.88187176 0.10777005 0.872437
-0.87325895 0.10641552 0.72410631
-0.85763115 0.10436378 0.59330624
-0.84815305 0.10276722 0.48240969
-0.84439546 0.10216747 0.38517112
-0.85909134 0.10379892 0.29942557
-0.83564723 0.10096862 0.20961356
-0.833018 0.10050858 0.1275226
-0.07495521 0.0331925 7.8889728
-1.219416 0.17216696 7.8291483
-1.2060585 0.16455738 5.8755331
-1.0875756 0.14303416 3.5539584
-1.0337783 0.13342158 2.5151978
-0.96727139 0.12348156 1.8542906
-0.92751127 0.11743341 1.4457443
-0.91139108 0.11491679 1.1764462
-0.45655558 0.086978436 7.8762655
-0.83666283 0.12729423 7.8498158
-1.1369101 0.15373924 4.4545918
-1.0599363 0.13979253 2.96155
-0.99685508 0.12954979 2.1423223
-0.95098794 0.122424 1.6385381
-0.91425645 0.11705669 1.2952673
-0.89908111 0.11448772 1.0608382
-0.89229077 0.11093585 0.9633975
-0.87216425 0.10797919 0.7910074
-0.86118507 0.10647202 0.65352911
-0.8631469 0.10641653 0.54179835
-0.85203409 0.10490035 0.43516198
-0.84307086 0.10365244 0.3396157
-0.84349746 0.1034112 0.25281543
-0.84009504 0.10299663 0.1689322
-0.88519484 0.11131373 0.87576252
-0.87288219 0.10946311 0.72410631
-0.86153901 0.10789265 0.59583938
-0.84328556 0.10516545 0.48031163
-0.8440336 0.10511434 0.38517112
-0.85390031 0.10619714 0.29825324
-0.83528972 0.10388496 0.20961356
-0.83266205 0.10341574 0.1275226
-0.074993409 0.033535101 7.9089723
-1.2188076 0.17642246 7.8291483
-1.2064852 0.16890766 5.8804283
-1.0870696 0.14682963 3.5539584
-1.0294329 0.13651527 2.5059927
-0.96683443 0.12685721 1.8542906
-0.92709565 0.12067032 1.4457443
-0.91098434 0.11809744 1.1764462
-0.45624915 0.088571578 7.8762655
-0.83674008 0.13029623 7.8547873
-1.1363665 0.15770687 4.4545918
-1.0594419 0.14349155 2.96155
-0.99639684 0.13302869 2.1423223
-0.95055485 0.12574281 1.6385381
-0.91085482 0.11985402 1.2912773
-0.89867604 0.11762539 1.0608382
-0.8918981 0.11404985 0.9633975
-0.87178206 0.11102296 0.7910074
-0.86080813 0.10947747 0.65352911
-0.85837567 0.10887132 0.53947955
-0.8516627 0.10787386 0.43516198
-0.84270394 0.10659467 0.3396157
-0.83825773 0.10574011 0.25188279
-0.84467125 0.10655178 0.16937928
-0.88480085 0.11440296 0.87576252
-0.87249482 0.11250937 0.72410631
-0.86115712 0.11089932 0.59583938
-0.84291333 0.10810842 0.48031163
-0.84366155 0.10805993 0.38517112
-0.85352445 0.10917716 0.29825324
-0.83492202 0.10680003 0.20961356
-0.83229601 0.10632165 0.1275226
-0.074914448 0.033817094 7.9139719
-1.2181844 0.18067583 7.8291483
-1.2068961 0.17326292 5.885324
-1.0865505 0.15062331 3.5539584
-1.0289501 0.14010783 2.5059927
-0.96638578 0.13023132 1.8542906
-0.92387968 0.12353261 1.4416113
-0.91056657 0.12127664 1.1764462
-0.45593721 0.090163648 7.8762655
-0.83628017 0.1332162 7.8547873
-1.1358091 0.16167256 4.4545918
-1.0589346 0.14718883 2.96155
-0.99808311 0.13680176 2.1468236
-0.94752586 0.12870887 1.6342722
-0.91043091 0.12303276 1.2912773
-0.89825994 0.12076164 1.0608382
-0.89149457 0.11716246 0.9633975
-0.87138921 0.11406536 0.7910074
-0.85627455 0.11193941 0.65078765
-0.85799038 0.11186695 0.53947955
-0.85128093 0.11084606 0.43516198
-0.8423267 0.1095356 0.3396157
-0.83788347 0.10866553 0.25188279
-0.84429413 0.10949957 0.16937928
-0.88439614 0.1174908 0.87576252
-0.87209672 0.11555427 0.72410631
-0.85649127 0.11333898 0.59330624
-0.84253085 0.11105008 0.48031163
-0.84327924 0.1110042 0.38517112
-0.85313815 0.11215585 0.29825324
-0.83454412 0.1097138 0.20961356
-0.83191979 0.10922625 0.1275226
-0.074872918 0.034119509 7.9239717
-1.2175462 0.18492697 7.8291483
-1.2062839 0.17747474 5.885324
-1.0860181 0.15441518 3.5539584
-1.0284548 0.14369868 2.5059927
-0.96829772 0.1339322 1.8586799
-0.92623067 0.12713967 1.4457443
-0.91013771 0.12445439 1.1764462
-0.45561972 0.091754615 7.8762655
-0.83581007 0.13613456 7.8547873
-1.1364815 0.16581796 4.4594307
-1.0584143 0.1508843 2.96155
-0.99759954 0.14028488 2.1468236
-0.94707078 0.13201556 1.6342722
-0.90999585 0.12621 1.2912773
-0.89783293 0.12389642 1.0608382
-0.89108014 0.12027365 0.9633975
-0.87098575 0.11710639 0.7910074
-0.85587865 0.11492768 0.65078765
-0.85759461 0.11486121 0.53947955
-0.85088885 0.1138169 0.43516198
-0.84193927 0.11247522 0.3396157
-0.83749908 0.11158962 0.25188279
-0.84390676 0.11244604 0.16937928
-0.88398063 0.1205772 0.87576252
-0.87168807 0.11859775 0.72410631
-0.85609043 0.11632801 0.59330624
-0.84213805 0.11399039 0.48031163
-0.84288663 0.11394712 0.38517112
-0.84792447 0.11448277 0.29708093
-0.83906358 0.11328889 0.21030425
-0.83153349 0.11212952 0.1275226
-0.074753366 0.034380656 7.9239717
-1.2168932 0.18917589 7.8291483
-1.2066638 0.18183626 5.8902192
-1.0869495 0.15842061 3.5587301
-1.0279468 0.14728779 2.5059927
-0.96782434 0.13731137 1.8586799
-0.92578119 0.13037205 1.4457443
-0.90969777 0.12763059 1.1764462
-0.45501399 0.093285874 7.871274
-0.83532977 0.13905126 7.8547873
-1.1358958 0.16978401 4.4594307
-1.0595887 0.15482764 2.966243
-0.99710375 0.14376631 2.1468236
-0.94660425 0.13532066 1.6342722
-0.90954983 0.12938572 1.2912773
-0.89739496 0.12702969 1.0608382
-0.89065492 0.12338337 0.9633975
-0.87057161 0.12014598 0.7910074
-0.85547221 0.11791455 0.65078765
-0.85718846 0.11785407 0.53947955
-0.85048634 0.11678637 0.43516198
-0.84154147 0.11541344 0.3396157
-0.8419714 0.11517819 0.25281543
-0.84350914 0.11539115 0.16937928
-0.88355434 0.12366212 0.87576252
-0.87126881 0.12163979 0.72410631
-0.85567909 0.11931561 0.59330624
-0.84173506 0.11692931 0.48031163
-0.8424837 0.11688863 0.38517112
-0.84751976 0.11744188 0.29708093
-0.83866304 0.11621708 0.21030425
-0.831137 0.11503144 0.1275226
-0.074594557 0.034620553 7.9189715
-1.2154582 0.19330026 7.8242087
-1.2060218 0.1860472 5.8902192
-1.0863898 0.1622138 3.5587301
-1.0293595 0.15115915 2.5105953
-0.96496898 0.14034396 1.8542906
-0.92810559 0.13400517 1.4498771
-0.90924668 0.13080525 1.1764462
-0.4546856 0.0948736 7.871274
-0.83483934 0.14196625 7.8547873
-1.1352962 0.173748 4.4594307
-1.0590417 0.15852535 2.966243
-0.99659586 0.14724597 2.1468236
-0.9461261 0.1386241 1.6342722
-0.90909261 0.13255985 1.2912773
-0.89694607 0.1301614 1.0608382
-0.89021879 0.12649158 0.9633975
-0.87014693 0.12318411 0.7910074
-0.85505545 0.1209 0.65078765
-0.86115825 0.12146431 0.54179835
-0.85007352 0.11975441 0.43516198
-0.84113353 0.11835027 0.3396157
-0.84156424 0.11811651 0.25281543
-0.8431012 0.11833484 0.16937928
-0.87942135 0.12621495 0.872437
-0.87083888 0.12468033 0.72410631
-0.85099006 0.12169138 0.59077305
-0.84132177 0.11986679 0.48031163
-0.83739561 0.1191634 0.38352761
-0.84710461 0.12039956 0.29708093
-0.83825225 0.11914385 0.21030425
-0.83073038 0.11793194 0.1275226
-0.074473254 0.034880728 7.9189715
-1.2147759 0.19754182 7.8242087
-1.2053651 0.19025587 5.8902192
-1.085817 0.16600503 3.5587301
-1.0307574 0.15504214 2.5151978
-0.96447325 0.14371148 1.8542906
-0.92763221 0.13724406 1.4498771
-0.90878451 0.13397832 1.1764462
-0.45435166 0.096460171 7.871274
-0.83381355 0.14478804 7.8498158
-1.1346829 0.17770986 4.4594307
-1.0584819 0.16222113 2.966243
-0.99607575 0.15072384 2.1468236
-0.94821554 0.14231314 1.6385381
-0.90862435 0.13573237 1.2912773
-0.89648628 0.13329154 1.0608382
-0.88977188 0.12959825 0.9633975
-0.86971164 0.12622073 0.7910074
-0.85462821 0.12388396 0.65078765
-0.86072904 0.12446957 0.54179835
-0.84965026 0.12272099 0.43516198
-0.84071529 0.12128565 0.3396157
-0.84114677 0.1210534 0.25281543
-0.84268296 0.12127709 0.16937928
-0.87897545 0.12928393 0.872437
-0.87039834 0.12771937 0.72410631
-0.85056007 0.12466116 0.59077305
-0.84089822 0.12280283 0.48031163
-0.84164715 0.1227674 0.38517112
-0.84186929 0.12265494 0.2959086
-0.8427316 0.12278318 0.21099493
-0.83031368 0.12083101 0.1275226
-0.074351043 0.035140473 7.9189715
-1.214079 0.20178097 7.8242087
-1.2056987 0.19462465 5.8951139
-1.0852308 0.16979422 3.5587301
-1.0321407 0.15893674 2.5198004
-0.96396571 0.14707723 1.8542906
-0.92714751 0.14048126 1.4498771
-0.90831131 0.13714975 1.1764462
-0.45373011 0.097984023 7.8662825
-0.83330309 0.14769773 7.8498158
-1.1340556 0.18166955 4.4594307
-1.0579093 0.16591494 2.966243
-0.99339235 0.15386645 2.1423223
-0.94771302 0.14562215 1.6385381
-0.90814507 0.13890323 1.2912773
-0.89601552 0.13642006 1.0608382
-0.88931406 0.13270335 0.9633975
-0.87311572 0.12982847 0.79414582
-0.85419059 0.12686642 0.65078765
-0.86467123 0.12812273 0.54411715
-0.84921676 0.12568608 0.43516198
-0.84028679 0.12421956 0.3396157
-0.8407191 0.12398881 0.25281543
-0.84225452 0.12421786 0.16937928
-0.87851882 0.13235134 0.872437
-0.86994725 0.13075686 0.72410631
-0.85011977 0.1276294 0.59077305
-0.84046441 0.12573737 0.48031163
-0.84121352 0.12570454 0.38517112
-0.84143603 0.12559286 0.2959086
-0.84229785 0.12572411 0.21099493
-0.8348282 0.12446534 0.12772413
-0.074189812 0.035378568 7.9139719
-1.2133673 0.20601767 7.8242087
-1.205012 0.19883212 5.8951139
-1.0861056 0.17381743 3.5635023
-1.0335094 0.16284288 2.5244026
-0.96344644 0.15044121 1.8542906
-0.92665148 0.14371675 1.4498771
-0.90782708 0.14031951 1.1764462
-0.45366716 0.099629775 7.871274
-0.83278239 0.15060559 7.8498158
-1.1334145 0.18562704 4.4594307
-1.0573237 0.16960672 2.966243
-0.99284923 0.15733312 2.1423223
-0.94719893 0.14892942 1.6385381
-0.9106316 0.14253858 1.2952673
-0.89553386 0.1395469 1.0608382
-0.88884538 0.13580681 0.9633975
-0.87265724 0.13287543 0.79414582
-0.85374254 0.12984732 0.65078765
-0.86421877 0.13114022 0.54411715
-0.85335636 0.12934446 0.43703499
-0.83984804 0.12715195 0.3396157
-0.83542401 0.12618901 0.25188279
-0.84181577 0.12715712 0.16937928
-0.87805146 0.13541713 0.872437
-0.8694855 0.13379274 0.72410631
-0.84966904 0.13059609 0.59077305
-0.84002036 0.12867036 0.48031163
-0.84076959 0.12864016 0.38517112
-0.84099245 0.12852925 0.2959086
-0.84185386 0.12866351 0.21099493
-0.83438861 0.12737867 0.12772413
-0.074065864 0.035637327 7.9139719
-1.2118752 0.21011895 7.8192692
-1.2053145 0.20320664 5.9000092
-1.0854923 0.1776076 3.5635023
-1.0329347 0.1664495 2.5244026
-0.96291542 0.15380335 1.8542906
-0.92614418 0.1469505 1.4498771
-0.90733176 0.14348757 1.1764462
-0.45331663 0.10121275 7.871274
-0.83225161 0.15351163 7.8498158
-1.1339993 0.18978994 4.4642701
-1.0567251 0.17329644 2.966243
-0.99229395 0.16079785 2.1423223
-0.94667327 0.15223484 1.6385381
-0.91012853 0.14571641 1.2952673
-0.89504129 0.14267205 1.0608382
-0.88836592 0.13890864 0.9633975
-0.87218809 0.13592075 0.79414582
-0.85328406 0.13282664 0.65078765
-0.8637557 0.13415611 0.54411715
-0.85289967 0.13232245 0.43703499
-0.8393991 0.13008279 0.3396157
-0.83497846 0.12910441 0.25188279
-0.84136683 0.13009484 0.16937928
-0.88126159 0.13906343 0.87576252
-0.86901319 0.13682699 0.72410631
-0.849208 0.13356119 0.59077305
-0.83956611 0.1316018 0.48031163
-0.84498078 0.13230477 0.38681462
-0.84534103 0.13221525 0.29708093
-0.84139961 0.13160135 0.21099493
-0.83887494 0.13106166 0.12792566
-0.073903039 0.035874154 7.9089723
-1.2111344 0.21434788 7.8192692
-1.2056013 0.20758572 5.9049048
-1.0848657 0.18139558 3.5635023
-1.0342751 0.17037186 2.5290053
-0.96473646 0.15754986 1.8586799
-0.92562556 0.15018244 1.4498771
-0.9068253 0.14665388 1.1764462
-0.45324191 0.10285901 7.8762655
-0.8317107 0.15641579 7.8498158
-1.13333 0.19374718 4.4642701
-1.0561138 0.17698403 2.966243
-0.99172664 0.16426061 2.1423223
-0.94356269 0.15511516 1.6342722
-0.912588 0.14937942 1.2992573
-0.89453781 0.14579545 1.0608382
-0.88787568 0.14200877 0.9633975
-0.87170833 0.13896443 0.79414582
-0.85281521 0.13580436 0.65078765
-0.86765707 0.13786562 0.54643595
-0.85243261 0.13529882 0.43703499
-0.83893991 0.13301206 0.3396157
-0.82967085 0.13125065 0.25095019
-0.84582639 0.13380915 0.16982636
-0.8807708 0.14213876 0.87576252
-0.86853027 0.13985959 0.72410631
-0.85299271 0.13720945 0.59330624
-0.84358293 0.13525021 0.48240969
-0.84451377 0.1352535 0.38681462
-0.84487438 0.13516523 0.29708093
-0.83604527 0.13375522 0.21030425
-0.83841234 0.13398908 0.12792566
-0.07377737 0.036131907 7.9089723
-1.2103789 0.21857423 7.8192692
-1.2058723 0.21196926 5.9098001
-1.0842258 0.18518136 3.5635023
-1.033674 0.17398112 2.5290053
-0.96418059 0.16091645 1.8586799
-0.92509568 0.15341257 1.4498771
-0.90630788 0.14981839 1.1764462
-0.45288014 0.10444049 7.8762655
-0.83115965 0.15931806 7.8498158
-1.1326467 0.19770207 4.4642701
-1.0554895 0.18066949 2.966243
-0.99329358 0.16808482 2.1468236
-0.94301552 0.15840787 1.6342722
-0.91503292 0.15306136 1.3032473
-0.89402348 0.14891708 1.0608382
-0.88737452 0.14510716 0.9633975
-0.87121791 0.14200641 0.79414582
-0.85233593 0.1387804 0.65078765
-0.86717057 0.14089347 0.54643595
-0.84737915 0.13753074 0.43516198
-0.83847046 0.13593969 0.3396157
-0.8292076 0.13414593 0.25095019
-0.84535408 0.13676082 0.16982636
-0.88026923 0.14521237 0.87576252
-0.86803675 0.14289047 0.72410631
-0.8525086 0.1401861 0.59330624
-0.84758449 0.13892828 0.48450777
-0.83937645 0.13743746 0.38517112
-0.84919429 0.13889822 0.29825324
-0.83557326 0.13667275 0.21030425
-0.8379395 0.13691488 0.12792566
-0.073612966 0.036367457 7.9039726
-1.2096084 0.22279792 7.8192692
-1.206127 0.21635717 5.9146948
-1.0835727 0.1889649 3.5635023
-1.031135 0.17725705 2.5244026
-0.96597385 0.16468379 1.8630688
-0.92455453 0.15664081 1.4498771
-0.90577942 0.15298107 1.1764462
-0.45251283 0.1060207 7.8762655
-0.83059847 0.16221838 7.8498158
-1.1331873 0.20187519 4.4691095
-1.0548525 0.18435273 2.966243
-0.99270082 0.17155103 2.1468236
-0.94245678 0.16169864 1.6342722
-0.91449302 0.1562545 1.3032473
-0.89349824 0.15203689 1.0608382
-0.89038008 0.14879179 0.96690202
-0.87071699 0.14504667 0.79414582
-0.85184634 0.14175478 0.65078765
-0.86667347 0.14391962 0.54643595
-0.84689391 0.14048781 0.43516198
-0.83799088 0.13886566 0.3396157
-0.82873428 0.13703959 0.25095019
-0.84487158 0.13971081 0.16982636
-0.87975699 0.14828421 0.87576252
-0.87151873 0.14659022 0.72704947
-0.85201406 0.14316106 0.59330624
-0.85157049 0.1426359 0.48660582
-0.83889157 0.1403666 0.38517112
-0.84870428 0.14186162 0.29825324
-0.83997542 0.14040507 0.21099493
-0.83745646 0.13983899 0.12792566
-0.07352332 0.036646083 7.9089723
-1.2088233 0.22701888 7.8192692
-1.2053645 0.22056603 5.9146948
-1.0829066 0.19274612 3.5635023
-1.0324342 0.18119322 2.5290053
-0.96539313 0.16805466 1.8630688
-0.92400217 0.15986715 1.4498771
-0.90523988 0.15614191 1.1764462
-0.4518593 0.10753218 7.871274
-0.82950437 0.16501243 7.8448443
-1.1324757 0.20582952 4.4691095
-1.0559014 0.18833695 2.9709356
-0.99423975 0.17539355 2.1513247
-0.9418866 0.16498744 1.6342722
-0.91691041 0.15996379 1.3072374
-0.89296204 0.15515487 1.0608382
-0.88985521 0.15189889 0.96690202
-0.87020534 0.14808515 0.79414582
-0.85134637 0.14472739 0.65078765
-0.86616582 0.14694399 0.54643595
-0.84639835 0.14344317 0.43516198
-0.83750105 0.14178996 0.3396157
-0.82825089 0.13993157 0.25095019
-0.83946836 0.14182946 0.16937928
-0.87923402 0.15135422 0.87576252
-0.87100172 0.14963149 0.72704947
-0.85150915 0.14613427 0.59330624
-0.85554093 0.14637305 0.48870388
-0.83839643 0.14329402 0.38517112
-0.8482039 0.1448233 0.29825324
-0.83948016 0.1433363 0.21099493
-0.8369633 0.14276141 0.12792566
-0.073394954 0.036902506 7.9089723
-1.2080235 0.23123708 7.8192692
-1.2055882 0.22495916 5.9195905
-1.0822272 0.19652499 3.5635023
-1.0317955 0.18479599 2.5290053
-0.96715868 0.17184266 1.867458
-0.92343849 0.16309156 1.4498771
-0.90468931 0.15930083 1.1764462
-0.45120072 0.10904039 7.8662825
-0.82892329 0.16790694 7.8448443
-1.1317503 0.20978135 4.4691095
-1.0552375 0.19202158 2.9709356
-0.99362147 0.17886302 2.1513247
-0.94130498 0.16827424 1.6342722
-0.91337991 0.162635 1.3032473
-0.89241505 0.15827094 1.0608382
-0.8893196 0.15500413 0.96690202
-0.86968315 0.15112184 0.79414582
-0.85083598 0.14769828 0.65078765
-0.86564761 0.14996657 0.54643595
-0.84589249 0.14639677 0.43516198
-0.83700103 0.14471251 0.3396157
-0.82775742 0.14282186 0.25095019
-0.83896822 0.1447589 0.16937928
-0.87870038 0.1544224 0.87576252
-0.8704741 0.15267095 0.72704947
-0.85099381 0.1491057 0.59330624
-0.85055393 0.14857747 0.48660582
-0.83789116 0.1462197 0.38517112
-0.8476932 0.14778319 0.29825324
-0.83897471 0.14626575 0.21099493
-0.83153802 0.14482485 0.12772413
-0.073265694 0.037158474 7.9089723
-1.2079717 0.2356014 7.8242087
-1.2057958 0.22935651 5.9244857
-1.0830023 0.2005735 3.5682743
-1.0311441 0.1883965 2.5290053
-0.96655297 0.17521763 1.867458
-0.92286354 0.16631396 1.4498771
-0.90412778 0.16245782 1.1764462
-0.45053712 0.11054531 7.8612905
-0.82833213 0.1707994 7.8448443
-1.1310111 0.21373062 4.4691095
-1.0562575 0.19601895 2.9756284
-0.99299103 0.18233033 2.1513247
-0.94071186 0.17155898 1.6342722
-0.91280663 0.1658223 1.3032473
-0.8951931 0.16198893 1.0645134
-0.88877314 0.15810749 0.96690202
-0.8729828 0.15483658 0.79728431
-0.85031521 0.15066734 0.65078765
-0.86075675 0.15221582 0.54411715
-0.84537631 0.1493486 0.43516198
-0.83649075 0.14763331 0.3396157
-0.82725382 0.14571039 0.25095019
-0.83845776 0.14768656 0.16937928
-0.87815595 0.15748869 0.87576252
-0.86595708 0.15499622 0.72410631
-0.85046816 0.15207532 0.59330624
-0.85003012 0.15154554 0.48660582
-0.8373757 0.14914359 0.38517112
-0.8471722 0.15074128 0.29825324
-0.83845901 0.14919342 0.21099493
-0.83102739 0.14772658 0.12772413
-0.07313554 0.037413992 7.9089723
-1.2071419 0.23981656 7.8242087
-1.2059875 0.23375808 5.9293809
-1.0822955 0.20435266 3.5682743
-1.0304803 0.19199471 2.5290053
-0.96593541 0.17859046 1.867458
-0.92227739 0.16953434 1.4498771
-0.90670788 0.16619088 1.1802837
-0.45014849 0.1121173 7.8612905
-0.82773083 0.17368978 7.8448443
-1.1314925 0.21791518 4.4739494
-1.0555668 0.19970478 2.9756284
-0.99448824 0.18619622 2.1558261
-0.94010729 0.17484163 1.6342722
-0.90925944 0.16845846 1.2992573
-0.89462221 0.16511275 1.0645134
-0.88821578 0.16120893 0.96690202
-0.87243694 0.15788291 0.79728431
-0.84978414 0.15363458 0.65078765
-0.86022019 0.1552195 0.54411715
-0.84484982 0.1522986 0.43516198
-0.83597034 0.1505523 0.3396157
-0.82674015 0.14859717 0.25095019
-0.83303571 0.1497314 0.1689322
-0.87760091 0.16055307 0.87576252
-0.8654108 0.15801804 0.72410631
-0.84993213 0.15504308 0.59330624
-0.84949595 0.15451178 0.48660582
-0.83684993 0.15206568 0.38517112
-0.84185833 0.15282929 0.29708093
-0.83793312 0.15211928 0.21099493
-0.83050668 0.15062651 0.12772413
-0.073041931 0.03769147 7.9139719
-1.2062974 0.24402881 7.8242087
-1.206163 0.23816375 5.9342756
-1.0830415 0.2084116 3.5730462
-1.0298038 0.19559059 2.5290053
-0.96530616 0.18196112 1.867458
-0.92444581 0.17327125 1.4540101
-0.90612221 0.16935487 1.1802837
-0.44975439 0.11368793 7.8612905
-0.82764083 0.17668961 7.8498158
-1.1307249 0.22186349 4.4739494
-1.0565579 0.2037151 2.9803214
-0.99383229 0.18966649 2.1558261
-0.94205356 0.17860816 1.6385381
-0.9086659 0.17163134 1.2992573
-0.89404041 0.16823456 1.0645134
-0.88764769 0.1643084 0.96690202
-0.87188059 0.16092733 0.79728431
-0.84924263 0.15659995 0.65078765
-0.85967308 0.15822127 0.54411715
-0.84887248 0.15608521 0.43703499
-0.83543968 0.15346947 0.3396157
-0.8262164 0.15148212 0.25095019
-0.83250803 0.15263832 0.1689322
-0.87703508 0.16361549 0.87576252
-0.86485392 0.16103791 0.72410631
-0.8493858 0.15800895 0.59330624
-0.8444891 0.15664829 0.48450777
-0.83631402 0.15498589 0.38517112
-0.8413198 0.15576699 0.29708093
-0.83739704 0.15504329 0.21099493
-0.82997578 0.15352459 0.12772413
-0.072909921 0.037946202 7.9139719
-1.2054383 0.24823809 7.8242087
-1.2063224 0.2425735 5.9391713
-1.0823073 0.21219087 3.5730462
-1.0271966 0.19881263 2.5244026
-0.96466511 0.18532956 1.867458
-0.92383528 0.17649712 1.4540101
-0.90552551 0.17251679 1.1802837
-0.44963428 0.1153295 7.8662825
-0.82701904 0.17957754 7.8498158
-1.131176 0.22605559 4.4787884
-1.0558404 0.20740195 2.9803214
-0.99530107 0.19355021 2.1603272
-0.94142437 0.18189545 1.6385381
-0.90806127 0.17480212 1.2992573
-0.89677709 0.17199305 1.0681885
-0.88706875 0.16740586 0.96690202
-0.87131351 0.16396977 0.79728431
-0.84869081 0.15956341 0.65078765
-0.8591156 0.16122113 0.54411715
-0.84832251 0.15904737 0.43703499
-0.83489889 0.15638477 0.3396157
-0.82568258 0.15436523 0.25095019
-0.8319701 0.15554339 0.1689322
-0.87645859 0.16667593 0.87576252
-0.86428654 0.16405584 0.72410631
-0.85306436 0.16177623 0.59583938
-0.84839654 0.16043857 0.48660582
-0.83576792 0.15790424 0.38517112
-0.8407709 0.15870281 0.29708093
-0.83685076 0.15796541 0.21099493
-0.82943487 0.15642083 0.12772413
-0.072777018 0.038200475 7.9139719
-1.203804 0.2522848 7.8192692
-1.206466 0.24698727 5.9440665
-1.0815601 0.21596752 3.5730462
-1.0264964 0.202397 2.5244026
-0.9663626 0.189156 1.8718469
-0.9232136 0.17972083 1.4540101
-0.90491784 0.17567661 1.1802837
-0.44922897 0.11689832 7.8662825
-0.82638717 0.18246329 7.8498158
-1.13038 0.23000275 4.4787884
-1.0568019 0.21142496 2.985014
-0.99461937 0.19702329 2.1603272
-0.94334251 0.18568441 1.642804
-0.90744555 0.1779708 1.2992573
-0.89617127 0.17512234 1.0681885
-0.88647896 0.17050129 0.96690202
-0.87073582 0.16701023 0.79728431
-0.85223538 0.16331203 0.65352911
-0.85419661 0.16338667 0.54179835
-0.84776211 0.1620076 0.43703499
-0.83434796 0.15929815 0.3396157
-0.8299641 0.1581661 0.25188279
-0.83142209 0.15844657 0.1689322
-0.87587142 0.16973431 0.87576252
-0.86370862 0.16707177 0.72410631
-0.85249442 0.16475299 0.59583938
-0.84783137 0.16339906 0.48660582
-0.8398487 0.16171359 0.38681462
-0.84021181 0.16163668 0.29708093
-0.83629423 0.1608856 0.21099493
-0.82888383 0.15931514 0.12772413
-0.072680429 0.038477089 7.9189715
-1.202916 0.25648531 7.8192692
-1.2065932 0.251405 5.9489617
-1.0822624 0.22003914 3.5778182
-1.0257837 0.20597892 2.5244026
-0.96569645 0.19252807 1.8718469
-0.9225806 0.18294236 1.4540101
-0.90744334 0.17945632 1.1841213
-0.44909716 0.11853999 7.871274
-0.82522511 0.18522978 7.8448443
-1.1308012 0.23420224 4.4836278
-1.0560575 0.2151126 2.985014
-0.99392551 0.20049396 2.1603272
-0.94268864 0.18897617 1.642804
-0.90681875 0.18113728 1.2992573
-0.89555454 0.17824949 1.0681885
-0.88587844 0.17359465 0.96690202
-0.87014753 0.17004864 0.79728431
-0.85166013 0.16628589 0.65352911
-0.85362113 0.1663674 0.54179835
-0.85174191 0.16585201 0.43890804
-0.83849555 0.16312574 0.34102574
-0.82940698 0.16106224 0.25188279
-0.83575261 0.16229717 0.16937928
-0.87527364 0.17279065 0.87576252
-0.86312014 0.17008565 0.72410631
-0.85191411 0.16772774 0.59583938
-0.85170931 0.16723208 0.48870388
-0.83927906 0.16464423 0.38681462
-0.83964247 0.16456859 0.29708093
-0.83572757 0.16380383 0.21099493
-0.83322549 0.16316763 0.12792566
-0.072545677 0.038730551 7.9189715
-1.2012541 0.26051787 7.8143306
-1.2067043 0.25582659 5.9538565
-1.0814877 0.22381559 3.5778182
-1.0250584 0.20955832 2.5244026
-0.96501845 0.19589782 1.8718469
-0.91917813 0.18560448 1.4498771
-0.90681142 0.18262279 1.1841213
-0.44868064 0.1201069 7.871274
-0.82457352 0.18810922 7.8448443
-1.1312066 0.23840745 4.4884672
-1.0569899 0.21914817 2.989707
-0.99535209 0.2044003 2.1648283
-0.94202328 0.1922656 1.642804
-0.90913373 0.18490231 1.3032473
-0.89492691 0.18137448 1.0681885
-0.88526708 0.17668587 0.96690202
-0.87336606 0.17384501 0.80042273
-0.85107452 0.16925772 0.65352911
-0.85303515 0.16934606 0.54179835
-0.85115772 0.16882414 0.43890804
-0.83792102 0.16605164 0.34102574
-0.83365858 0.16490972 0.25281543
-0.83518094 0.16521351 0.16937928
-0.87832564 0.17658095 0.87908798
-0.86252117 0.17309746 0.72410631
-0.85132343 0.17070046 0.59583938
-0.85112035 0.17020409 0.48870388
-0.83869922 0.16757284 0.38681462
-0.84382951 0.16845006 0.29825324
-0.83515066 0.16672006 0.21099493
-0.83265084 0.16607513 0.12792566
-0.07241004 0.03898355 7.9189715
-1.2003374 0.26470944 7.8143306
-1.2058039 0.26003721 5.9538565
-1.0806998 0.22758934 3.5778182
-1.0243207 0.21313517 2.5244026
-0.96432877 0.19926517 1.8718469
-0.91852462 0.18881188 1.4498771
-0.9061684 0.18578704 1.1841213
-0.44825867 0.12167235 7.871274
-0.82391185 0.19098637 7.8448443
-1.1303675 0.24235465 4.4884672
-1.0562185 0.22283642 2.989707
-0.99463254 0.20787349 2.1648283
-0.94134641 0.19555271 1.642804
-0.90848279 0.18807465 1.3032473
-0.8942883 0.18449724 1.0681885
-0.88464487 0.17977497 0.96690202
-0.87275392 0.17689256 0.80042273
-0.85047847 0.1722275 0.65352911
-0.85243887 0.17232269 0.54179835
-0.85056329 0.17179421 0.43890804
-0.83733624 0.16897552 0.34102574
-0.83307785 0.16781873 0.25281543
-0.8345992 0.16812782 0.16937928
-0.87770391 0.17964581 0.87908798
-0.86191171 0.17610717 0.72410631
-0.84649879 0.17280871 0.59330624
-0.85496837 0.17407963 0.49080193
-0.84273654 0.17144088 0.38845813
-0.84323633 0.17139456 0.29825324
-0.83456361 0.16963427 0.21099493
-0.83206606 0.16898061 0.12792566
-0.072273515 0.039236069 7.9189715
-1.198648 0.26872763 7.809391
-1.2058835 0.26446298 5.9587522
-1.0798988 0.23136029 3.5778182
-1.0235704 0.21670941 2.5244026
-0.96597111 0.20312315 1.8762361
-0.91785997 0.19201697 1.4498771
-0.90551436 0.18894902 1.1841213
-0.44755304 0.12315914 7.8662825
-0.82272148 0.19373877 7.8398728
-1.1307428 0.24656689 4.4933071
-1.0571214 0.22688425 2.9943995
-0.9939009 0.21134414 2.1648283
-0.94320965 0.199377 1.6470701
-0.91076922 0.19186606 1.3072374
-0.89363885 0.18761776 1.0681885
-0.88401198 0.18286186 0.96690202
-0.87594306 0.18072461 0.80356121
-0.84987211 0.17519517 0.65352911
-0.85183215 0.1752972 0.54179835
-0.84995842 0.17476219 0.43890804
-0.83204246 0.17093194 0.3396157
-0.83729905 0.17171259 0.25374803
-0.8340072 0.17104009 0.16937928
-0.88072675 0.18347009 0.88241351
-0.86129177 0.17911474 0.72410631
-0.8458904 0.17576249 0.59330624
