# .PCD v0.7 - Point Cloud Data file format
VERSION 0.7
FIELDS x y z
SIZE 4 4 4
TYPE F F F
COUNT 1 1 1
WIDTH 1585
HEIGHT 1
VIEWPOINT 0 0 0 1 0 0 0
POINTS 1585
DATA ascii
7.975872 3.8626003 7.2279816
7.5980949 3.661664 7.5932727
4.3754253 2.0081699 30.604067
3.7152171 1.7263672 19.719236
3.491164 1.6429796 12.382129
4.3727365 2.0708394 11.457902
4.4779501 2.1282976 9.1533289
5.4978194 2.6200449 9.0173063
6.1517076 2.935596 8.2374544
1.6356004 0.6549443 30.303789
2.9784651 1.3278143 30.370728
4.5567756 2.1240878 19.393894
3.1788239 1.4946256 9.6065073
4.003015 1.8914677 9.2182312
5.0330563 2.3856494 9.1807098
6.3167701 3.004884 7.6614337
6.8052287 3.262032 7.4958715
8.0173798 3.8482101 7.2530894
7.6714759 3.6640851 7.653132
4.3817015 1.9925629 30.599127
4.5721307 2.1051233 24.222843
3.5009363 1.6326756 12.396444
4.3728642 2.0522432 11.439492
4.5568533 2.1463299 9.2981691
5.4738517 2.5852153 8.9635782
6.1966887 2.9305482 8.2835045
1.6378766 0.64923102 30.303789
2.9816189 1.3167638 30.355814
4.534493 2.0944657 19.26807
3.1996641 1.4908078 9.6534348
4.0076213 1.8765599 9.2137299
5.0271897 2.3614137 9.1551142
7.6174397 3.5845642 11.222447
6.3272204 2.9828162 7.6614337
6.8165736 3.2382576 7.4958715
8.0167036 3.8135126 7.2405353
7.6909699 3.6404796 7.6597829
4.3886299 1.9772557 30.599127
4.5785246 2.088728 24.217949
3.506614 1.6204451 12.396444
4.3817725 2.0377903 11.444095
4.6033821 2.1486433 9.3771725
5.4802942 2.5648997 8.959445
6.2359033 2.9225013 8.3218784
1.6398638 0.64340448 30.298796
2.9852202 1.3059207 30.345871
4.5360613 2.0760095 19.243872
3.201715 1.4781833 9.6440496
4.0161223 1.8634756 9.2182312
5.014122 2.3339462 9.1167212
7.632637 3.5592265 11.226438
6.2976637 2.9420581 7.6136565
6.8310628 3.2159626 7.4993758
8.0299664 3.785506 7.2405353
7.7374339 3.629467 7.693038
4.395505 1.9619244 30.599127
3.7423699 1.6915609 19.768188
3.5176783 1.6106806 12.415532
4.3835359 2.0200298 11.430287
4.649982 2.1506574 9.4561758
5.4892139 2.5457542 8.959445
6.2344384 2.8953161 8.306529
1.6418308 0.63757205 30.293804
2.9882932 1.2948569 30.330957
4.5421352 2.0596437 19.239033
3.1958702 1.4619734 9.6111994
4.0265579 1.8512639 9.2272329
5.008029 2.3098757 9.0911255
7.6450143 3.5325618 11.226438
6.3294306 2.9300263 7.6393824
6.8519425 3.1966214 7.5098901
11.978686 5.5959792 10.743053
7.7534418 3.6040101 7.696363
4.4023266 1.9465693 30.599127
3.7408171 1.6751585 19.729027
3.531435 1.6020916 12.444164
4.3763428 1.9982247 11.393467
4.6618156 2.1364086 9.4649544
5.4980664 2.5265777 8.959445
6.2648892 2.8829155 8.3333912
1.6437767 0.63173372 30.288813
2.9923048 1.2842077 30.325985
4.5378313 2.0386257 19.190639
3.2355335 1.4664803 9.7144413
4.0310144 1.8362947 9.2227316
4.982852 2.277204 9.0314016
7.657299 3.5058544 11.226438
6.3796787 2.9262888 7.68716
6.8339248 3.1592162 7.4783487
11.902777 5.509984 10.658315
7.7964964 3.5909812 7.7262926
4.4090943 1.9311905 30.599127
3.7540879 1.6653931 19.768188
3.5451748 1.5934261 12.472795
4.3708315 1.9773 11.361249
4.6692443 2.1201227 9.4649544
5.5555129 2.5295255 9.0379705
1.645432 0.62578702 30.278828
2.9962788 1.2735463 30.321012
4.5368814 2.019196 19.156763
3.2768407 1.4714345 9.8223743
4.0354161 1.8213174 9.2182312
4.9931459 2.2608724 9.0356674
7.6832104 3.485328 11.246387
6.8124881 3.1204908 7.4433031
12.020998 5.5138388 10.746191
7.8021908 3.5606444 7.7196422
4.4172344 1.9164065 30.609007
3.7626748 1.6535076 19.782873
3.5629885 1.5865057 12.515743
4.3670101 1.957237 11.333634
4.6875377 2.1087236 9.4868994
5.6104808 2.530946 9.1123638
9.6703434 4.368423 12.781058
1.6473361 0.61993808 30.273838
3.0002146 1.2628728 30.31604
4.5335507 1.9987835 19.113209
3.2819571 1.4599873 9.8223743
4.0576477 1.8143284 9.254241
4.9676938 2.2284853 8.9759445
7.7008262 3.4609575 11.254368
6.9007363 3.107161 8.2825365
6.7843699 3.0790064 7.4012489
13.617047 6.1884747 12.142805
7.8281803 3.5395408 7.7329435
4.4238973 1.9009758 30.609007
3.7749593 1.6432078 19.817141
3.572602 1.575866 12.53006
4.3791723 1.9443595 11.347442
4.699245 2.0942979 9.4956779
5.6192813 2.5113463 9.1123638
1.6492195 0.61408341 30.268845
3.0041127 1.2521875 30.311069
4.5439558 1.9844553 19.127726
3.302825 1.4554807 9.8693027
4.0739079 1.8045616 9.2767467
4.9968925 2.2206635 9.0143385
7.7624097 3.4561162 11.326188
6.9610777 3.1051509 8.3413391
6.8048339 3.0596929 7.4117622
13.58178 6.1153364 12.092589
12.113512 5.4262962 11.903121
4.4319358 1.8861303 30.618885
3.782542 1.6308267 19.826929
3.5753455 1.5621904 12.520515
4.3912983 1.9314213 11.361249
4.6977625 2.0740128 9.4781208
5.6357327 2.4951339 9.1247635
9.486701 4.2059717 12.500921
1.651353 0.60832286 30.268845
3.0089579 1.2418967 30.31604
4.5623918 1.9735719 19.176121
3.3110487 1.4453235 9.8786879
4.0881562 1.7938287 9.2947512
5.0117736 2.2063596 9.0271358
7.8626504 3.4679108 11.453869
6.9873796 3.0876849 8.3597155
6.8317614 3.0431767 7.4292855
13.613708 6.0726466 12.102005
12.10849 5.3733783 11.879842
4.4384928 1.8706485 30.618885
3.7835293 1.6156142 19.802454
3.5835166 1.5508863 12.53006
4.4338346 1.9316864 11.4533
4.7027793 2.0566423 9.473732
5.6315222 2.4697952 9.1040983
9.5130634 4.1779871 12.516272
1.6537378 0.6026535 30.273838
3.0132747 1.2313859 30.31604
4.5750308 1.9601091 19.200317
3.3144898 1.4330722 9.8739948
4.1143584 1.7882246 9.3397627
5.0218358 2.1898944 9.0314016
7.9547844 3.4754283 11.56958
7.0229602 3.0741508 8.3891163
6.8586555 3.026509 7.4468079
13.627703 6.0219426 12.095728
11.915251 5.2379193 11.673661
4.4435611 1.8545456 30.609007
3.7816436 1.5992252 19.763292
3.5889082 1.538368 12.53006
4.4638696 1.9262596 11.513133
4.6989412 2.0354545 9.451787
5.6607575 2.4590919 9.1371613
9.4746847 4.1217399 12.447196
1.6558313 0.59687722 30.273838
3.0180488 1.22106 30.321012
4.5899444 1.9475639 19.234194
3.3194718 1.4214936 9.8739948
4.118576 1.7729912 9.3352623
4.9983244 2.1589084 8.9759445
8.0277061 3.4739671 11.65736
11.509357 5.0307593 12.423264
12.614594 5.5217118 11.185575
11.529511 5.020401 11.281253
4.4485717 1.8384299 30.599127
3.7787499 1.5824758 19.719236
3.5956304 1.5264143 12.534832
4.4705663 1.9106661 11.513133
4.7148213 2.0228164 9.4693422
7.2642021 3.1255279 11.687191
9.4919586 4.0899105 12.451035
1.6581767 0.59119046 30.278828
3.0217979 1.2103195 30.31604
4.6036682 1.9344517 19.263231
3.3323569 1.4132664 9.897459
4.1567802 1.7722635 9.4072809
4.9818511 2.1311903 8.9332857
8.0591707 3.4542336 11.68529
11.059587 4.7493424 13.126403
11.739573 5.0826516 12.651058
12.644504 5.4822903 11.194991
11.516109 4.9668169 11.251323
4.4542427 1.8225961 30.594189
3.7833102 1.5688857 19.71434
3.6009367 1.5138539 12.534832
4.4538198 1.8851502 11.4533
4.7240582 2.007283 9.473732
7.2491798 3.0891206 11.645862
9.4678526 4.0403976 12.401147
1.6599579 0.58530289 30.273838
3.0255089 1.1995678 30.311069
4.6173549 1.9212669 19.292267
3.3261325 1.3969485 9.8646097
4.1990404 1.7729844 9.4883032
4.9748516 2.1076834 8.90769
8.0905952 3.4343224 11.713221
11.228967 4.7757225 13.306487
11.855572 5.0838065 12.756196
12.803046 5.4980173 11.31739
4.459137 1.8064533 30.584311
3.7887633 1.5556699 19.71434
3.606199 1.5012751 12.534832
4.4315438 1.857509 11.379659
4.742074 1.9954251 9.4956779
7.2625117 3.0648916 11.649995
9.4464703 3.9923511 12.355096
1.6622634 0.57959986 30.278828
3.0286851 1.1886101 30.301126
4.6310067 1.9080104 19.321302
5.5155253 2.2937703 16.298391
4.2594323 1.7809895 9.6098366
4.9917979 2.0943408 8.9247532
8.1386461 3.4212401 11.765091
11.37679 4.7917652 13.460843
11.718967 4.9768729 12.591482
12.775598 5.4334893 11.276591
4.463973 1.7902987 30.57443
3.7932274 1.5420518 19.709446
3.6100376 1.4881091 12.53006
4.4145436 1.8322932 11.319826
4.757853 1.9825447 9.5132332
7.3250942 3.061223 11.732654
9.4307804 3.9469779 12.316721
1.6642765 0.57379395 30.278828
3.0333126 1.1782236 30.306099
4.6481137 1.8961061 19.364859
5.5075417 2.2679331 16.251465
4.3219419 1.789427 9.7358704
5.0303884 2.089911 8.9802113
8.2367764 3.4287071 11.888782
11.418479 4.7624645 13.490245
11.52259 4.8460693 12.363686
12.794486 5.3888612 11.276591
12.242473 5.1287169 11.903121
4.4673071 1.773559 30.554674
3.7976422 1.5284214 19.70455
3.6124458 1.4743706 12.520515
4.4263334 1.8191001 11.333634
4.7736006 1.9695783 9.5307903
7.3383355 3.0367107 11.736787
9.3912029 3.8919466 12.247646
1.6665426 0.56807405 30.283821
3.0408902 1.1689668 30.3409
4.6582007 1.8812815 19.379375
5.5346003 2.2565122 16.307777
4.396647 1.8024036 9.8889122
5.0714197 2.0862291 9.0399342
8.4214201 3.4711266 12.136163
11.319096 4.6746964 13.354263
11.302402 4.7071018 12.11136
12.809625 5.342669 11.273452
12.260301 5.0859518 11.903121
4.472024 1.7573861 30.544796
3.8010628 1.5144023 19.694761
3.6148021 1.4606335 12.510971
4.4362755 1.8051108 11.342839
4.7893152 1.9565263 9.5483465
7.3697224 3.0196121 11.769851
9.395834 3.8554909 12.236134
1.6690627 0.56243736 30.293804
3.0499344 1.1602395 30.390614
4.6647391 1.8650099 19.379375
5.9281015 2.3928385 17.438734
4.4029121 1.7870454 9.8889122
5.0835023 2.0704813 9.0484657
8.5004425 3.4690344 12.231924
11.260034 4.604362 13.26606
11.097868 4.5765285 11.876554
12.846185 5.3053508 11.289145
12.295247 5.0502172 11.919748
4.4737864 1.7400755 30.515162
3.8053782 1.5007514 19.689863
3.6157207 1.4463435 12.496656
4.4497986 1.7925342 11.361249
4.7938952 1.9388984 9.5439568
7.3958631 3.0002153 11.794648
9.4508085 3.8395596 12.289859
1.6715637 0.55678999 30.303789
3.052968 1.1492108 30.380671
4.67239 1.8491782 19.384216
6.0261569 2.4079876 17.70153
4.4353824 1.7822163 9.9474268
5.0834417 2.049798 9.0356674
8.562789 3.4596593 12.303743
11.326316 4.5853834 13.324862
11.041139 4.5081048 11.799454
12.361224 5.0269599 11.966306
3.8115427 1.4878292 19.694761
3.6193597 1.433164 12.491884
4.4560285 1.7769907 11.361249
4.7961874 1.9203724 9.5351791
7.4219594 2.9806726 11.819446
9.4671278 3.8077428 12.293696
1.6740456 0.55113196 30.31377
3.0559616 1.138175 30.370728
4.6799865 1.8333157 19.389055
6.005641 2.3755131 17.61706
4.4719186 1.7787915 10.014945
5.0929885 2.0330079 9.0399342
8.5915995 3.4364626 12.327684
11.420923 4.5773492 13.416741
11.020439 4.4548354 11.760905
12.482604 5.0256147 12.066071
3.3574362 1.2790383 22.839554
3.8205121 1.4759828 19.71434
3.6243403 1.4205214 12.491884
4.4440317 1.7542523 11.315224
4.7895017 1.8983241 9.5088444
7.453238 2.9630635 11.852509
1.6762338 0.54537421 30.318762
3.0594161 1.1273166 30.365757
4.6875291 1.8174225 19.393894
4.4781003 1.7631708 10.014945
5.1049051 2.0171344 9.0484657
11.443135 4.5399556 13.424092
11.002811 4.4030895 11.725859
12.500071 4.9820113 12.066071
3.8284941 1.4637284 19.729027
3.6264935 1.4067818 12.48234
4.4282923 1.730198 11.259995
4.7871814 1.8780956 9.4912882
7.4792471 2.9432113 11.877307
9.6813459 3.8155978 12.535459
1.678952 0.53978437 30.333736
3.0628314 1.1164477 30.360785
4.6973658 1.8023999 19.408413
5.5779657 2.1614466 16.321856
4.4923415 1.7506903 10.03295
5.0851974 1.9888536 9.0015402
9.0025425 3.5281253 12.878308
11.481 4.5086579 13.449819
11.0148 4.3633428 11.722355
11.777582 4.6464839 11.357738
3.3335223 1.2433516 22.617287
3.8373895 1.4517965 19.748606
5.7231164 2.1970563 19.645086
4.4470596 1.7196617 11.292212
4.77808 1.8553058 9.4605656
7.5025868 2.9221923 11.897971
9.7364111 3.7980881 12.589184
1.6813763 0.53409499 30.343721
3.0667098 1.1057496 30.360785
4.7083287 1.7877766 19.427771
5.5790319 2.1394916 16.303085
4.4963942 1.7342153 10.028449
5.0483294 1.9541451 8.9247532
9.056942 3.5130236 12.938158
11.417672 4.43785 13.357939
11.076445 4.3430929 11.771419
11.804163 4.6094184 11.367715
3.8433876 1.4387497 19.753502
5.7391233 2.1802461 19.673719
4.4530354 1.7041281 11.292212
4.7845268 1.8386159 9.4605656
7.5678797 2.9172399 11.984763
9.7914724 3.7802403 12.64291
1.6846079 0.52865404 30.368679
3.0705509 1.0950381 30.360785
4.7180705 1.7726567 19.442289
5.5896926 2.1212282 16.312469
4.5024204 1.7185093 10.028449
5.0039754 1.9169198 8.8351688
9.0804024 3.4857073 12.954118
11.357154 4.3687568 13.269734
11.16468 4.3327875 11.848518
11.837596 4.5749164 11.384343
3.8550701 1.4278001 19.787769
5.7243428 2.1517963 19.597368
4.4553027 1.6871902 11.283007
4.7931547 1.8227549 9.4649544
7.6463771 2.9168823 12.09222
9.8076019 3.7471824 12.646747
1.6853397 0.52242911 30.348711
3.0743546 1.0843132 30.360785
4.7277641 1.7574905 19.456806
5.5970631 2.1017036 16.312469
4.5145011 1.7050898 10.041953
4.9960041 1.8938943 8.8095741
9.092514 3.4539895 12.954118
11.423028 4.3483834 13.328537
11.179737 4.2937889 11.848518
11.856981 4.5349016 11.387669
3.3134718 1.1965027 22.39502
3.8667235 1.4167866 19.822035
5.709434 2.1234765 19.521015
4.4538469 1.6688861 11.264596
4.8196616 1.8136034 9.5044556
7.6723094 2.8961365 12.117018
9.8026333 3.7061236 12.623721
1.6871531 0.51654297 30.348711
3.0781209 1.073575 30.360785
4.7397685 1.7431459 19.481003
5.5978951 2.0797496 16.293699
4.5347004 1.6946551 10.073462
5.0172362 1.8819389 8.8351688
9.1750298 3.4487345 13.053869
10.99398 4.1411815 12.814014
11.191322 4.2534714 11.845014
11.886707 4.4987717 11.40097
3.8783462 1.4057088 19.856302
5.7308197 2.1086881 19.568735
4.4779634 1.6601197 11.310621
4.8551412 1.8076316 9.5615139
7.6533742 2.8585072 12.071555
9.8095064 3.6696374 12.616047
1.6883932 0.51048386 30.33873
3.0813458 1.0626503 30.355814
4.7458248 1.7265903 19.481003
5.6180787 2.0649593 16.331242
4.5610061 1.6863647 10.118473
5.0139942 1.8607843 8.8181047
9.1728916 3.4114349 13.033919
10.992484 4.0968599 12.795638
11.19275 4.2093592 11.830995
11.905833 4.4585614 11.404296
3.3180809 1.1720477 22.370323
3.8947313 1.3962852 19.915045
5.7409511 2.0896921 19.578279
4.4929023 1.647842 11.333634
4.8906374 1.8014339 9.6185713
7.6606655 2.8307991 12.067423
9.8132381 3.632036 12.604534
1.6893348 0.50433987 30.323753
3.0850363 1.0518879 30.355814
4.7565541 1.7117162 19.500362
5.652823 2.0553601 16.411018
4.589354 1.678659 10.167987
5.0522866 1.8549562 8.8735628
10.64395 3.9162784 15.092772
10.936741 4.0326619 12.714786
11.227429 4.1777253 11.852022
11.931829 4.420867 11.414273
3.8995814 1.3826815 19.915045
5.7411885 2.0671117 19.55442
4.5041366 1.6341476 11.347442
4.9284 1.7958304 9.6800194
7.6625714 2.8011427 12.055023
9.8168268 3.5944533 12.593021
1.6935775 0.49917302 30.368679
3.0891943 1.0412828 30.360785
4.7636843 1.6955239 19.505201
5.6826973 2.0437913 16.476717
4.6033745 1.6655915 10.185992
5.110209 1.8560048 8.9631472
10.677376 3.8863144 15.120702
10.925271 3.9851673 12.685383
11.315572 4.1656132 11.929123
3.906306 1.3697348 19.924835
5.7371197 2.0430527 19.516245
4.5098133 1.6184154 11.347442
4.9053478 1.7680593 9.622961
7.6670108 2.7724648 12.046758
9.8112316 3.5536149 12.569996
1.6958642 0.49341929 30.378662
3.0923047 1.0303248 30.355814
4.760088 1.6755465 19.466486
5.6832933 2.0216291 16.457947
4.6091604 1.6495125 10.185992
5.2320166 1.8795967 9.1636467
10.668195 3.8408539 15.08878
10.884904 3.9274464 12.622906
11.350148 4.1334105 11.95015
3.3669391 1.1497895 22.617287
3.9149115 1.3574249 19.944416
5.7484398 2.0245013 19.53056
4.4970245 1.5961292 11.301417
4.9137459 1.7517298 9.6273499
7.6633925 2.7409463 12.026093
9.8567696 3.5312369 12.612209
1.6989638 0.48789427 30.40362
3.0958822 1.0195243 30.355814
4.7611589 1.6572679 19.447128
5.7245011 2.0138037 16.556494
4.6210465 1.6355925 10.199495
5.270493 1.872673 9.2191029
10.667344 3.7985375 15.06883
10.91132 3.893985 12.637608
11.398061 4.1058526 11.985196
3.9215527 1.3444114 19.954206
5.7653394 2.0078597 19.563965
4.5007248 1.5797747 11.296814
4.9017601 1.7281964 9.5922375
7.6808724 2.7169945 12.038492
10.001967 3.5439088 12.781058
1.7006565 0.48196077 30.40362
3.0989153 1.0085466 30.350842
4.7609725 1.6385932 19.422932
5.7640934 2.0051482 16.650349
4.6246729 1.6187328 10.194994
5.2794585 1.8551288 9.2233686
10.703277 3.7692857 15.100752
10.947223 3.8637717 12.663333
11.516463 4.1031442 12.093836
3.4264784 1.1434691 22.963034
3.9310429 1.3323482 19.978683
5.7821927 1.9911245 19.597368
6.8704991 2.3846118 17.192646
4.8874097 1.7039797 9.5527353
7.6743727 2.6845922 12.013695
10.005203 3.505794 12.769547
1.7026066 0.47609901 30.408613
3.102417 0.99772322 30.350842
4.7630935 1.6207498 19.408413
5.8118534 1.9990467 16.767668
4.6323528 1.6032919 10.199495
5.278511 1.8341209 9.2105713
10.807429 3.763612 15.228433
10.992651 3.8367064 12.700085
11.614805 4.0925479 12.181449
3.4378281 1.1339347 23.012426
3.9337392 1.3179715 19.968891
5.7947598 1.9728529 19.616457
6.888021 2.3637857 17.21566
4.9001207 1.6892509 9.5659027
7.6969938 2.6623862 12.034359
10.01738 3.4708481 12.769547
1.7042582 0.47015294 30.408613
3.1043565 0.98640352 30.335928
4.76753 1.6037127 19.403572
5.8351345 1.9843031 16.814596
4.6235027 1.5821786 10.167987
10.880332 3.7464657 15.312222
11.018796 3.8027356 12.714786
11.709846 4.080142 12.265559
12.138206 4.2103949 11.524014
3.9373493 1.303912 19.963997
5.8001966 1.9521372 19.611683
6.8943801 2.3390996 17.211058
4.8946524 1.6682729 9.5439568
10.153193 3.4723277 15.832539
10.017304 3.4317048 12.754196
1.7058889 0.46420109 30.408613
3.1072724 0.97540176 30.330957
4.7707133 1.5862681 19.393894
5.8485684 1.9661219 16.833366
4.6228118 1.5639373 10.154484
8.8793306 3.0159349 15.408973
10.944687 3.7259426 15.384043
11.035211 3.7653444 12.71846
11.737504 4.043889 12.279577
12.145764 4.1655765 11.517363
3.9409089 1.2898436 19.959101
5.8013101 1.9299942 19.592596
6.5264935 2.1889167 16.276745
4.9049854 1.6527065 9.5527353
10.17858 3.4413719 15.853203
9.9988642 3.386435 12.715821
1.7074988 0.45824358 30.408613
3.1081123 0.96376038 30.306099
4.7762218 1.5696056 19.393894
5.8635836 1.9484153 16.856831
4.6096611 1.5415776 10.113973
8.8898048 2.9849219 15.408973
10.986186 3.6973267 15.423943
11.080411 3.7376373 12.755212
11.798809 4.018991 12.328641
12.177911 4.1291485 11.53399
3.4273009 1.0908047 22.864248
3.9444184 1.275766 19.954206
5.7952495 1.9055362 19.549648
4.9107246 1.6355748 9.5527353
10.190531 3.4058213 15.853203
10.065334 3.3698282 12.784897
1.709088 0.45228049 30.408613
3.1129868 0.95337325 30.321012
4.7804766 1.5525358 19.389055
5.8834653 1.9322431 16.894373
4.6150146 1.5254774 10.113973
8.9075956 2.9563375 15.421772
11.01618 3.6646619 15.447884
11.443945 3.8158226 13.155806
11.849943 3.9902997 12.367191
12.178091 4.0818686 11.520689
3.4310877 1.0788345 22.864248
3.9498174 1.2622997 19.959101
5.8118033 1.8885242 19.583052
6.5211935 2.1366093 16.226118
4.9346032 1.624414 9.5878477
10.199686 3.3693464 15.849071
10.113551 3.3467567 12.830947
1.7109357 0.44638467 30.413603
3.1173162 0.94280958 30.330957
4.7870631 1.5362232 19.393894
5.8901744 1.9116942 16.894373
4.6347966 1.5140905 10.145481
8.9228182 2.926852 15.430304
11.608524 3.8257244 13.328537
11.897636 3.9601738 12.402236
3.4274123 1.0645472 22.814857
3.9541998 1.2485045 19.959101
5.8212023 1.8691385 19.592596
4.9493537 1.6101427 9.6054049
10.173935 3.321496 15.791209
10.125172 3.3114333 12.830947
1.7127632 0.44048142 30.418596
3.1221204 0.93237978 30.345871
4.7852073 1.5172248 19.364859
5.9378929 1.9042958 17.011692
4.6566272 1.5032527 10.181491
8.9230556 2.8924708 15.413239
11.515433 3.7505341 13.207257
11.989304 3.9442515 12.482841
3.4236789 1.0502986 22.765463
3.959506 1.2349973 19.963997
5.8604164 1.8591881 19.702353
6.4410524 2.0606723 15.991389
10.172075 3.281642 15.770545
10.151917 3.280998 12.850134
1.7145702 0.43457085 30.423588
3.1258676 0.92162657 30.350842
4.7868762 1.4993852 19.35034
5.9445038 1.8835571 17.011692
4.6618462 1.4869889 10.181491
8.9678698 2.8724432 15.472962
10.738361 3.4477773 15.008982
11.58009 3.726933 13.26606
12.104744 3.9354563 12.587976
3.4221187 1.0367646 22.730888
3.9647658 1.2214682 19.968891
5.8668699 1.8387201 19.702353
6.4631085 2.0428863 16.02821
10.124484 3.227313 15.67962
10.184683 3.2523665 12.876996
1.716637 0.4287228 30.433571
3.130089 0.91100734 30.360785
4.7800717 1.4789516 19.301945
5.9213986 1.8535169 16.927223
4.6587029 1.4680898 10.163486
9.0449781 2.8623672 15.588143
10.974362 3.481339 15.320203
11.638259 3.7008708 13.317512
12.159153 3.9062681 12.630033
3.4249725 1.0245904 22.72595
3.9699793 1.2079176 19.973787
5.8789563 1.8199953 19.721439
6.4720654 2.0208957 16.032812
10.082006 3.1750472 15.59696
1.7186836 0.42286563 30.443554
3.1363242 0.90095848 30.390614
4.7876101 1.4629917 19.311625
5.9047513 1.8257002 16.861525
4.6575632 1.4498781 10.149982
9.0897636 2.8416712 15.647866
11.043955 3.4610319 15.400003
12.148919 3.8562484 12.6055
3.4262924 1.0119686 22.711132
3.9751465 1.1943451 19.978683
5.9024038 1.8047 19.778704
6.4324079 1.9838978 15.917749
8.4279699 2.6122067 16.237303
10.023166 3.1181023 15.489504
10.412165 3.2450829 13.134109
1.7204299 0.41693157 30.448545
3.1415017 0.8905865 30.410501
4.7987041 1.4480865 19.335821
5.8995352 1.8015499 16.828674
4.6625957 1.4336113 10.149982
9.0896587 2.8068466 15.630802
10.960979 3.3930559 15.268332
12.165709 3.8148842 12.609004
3.426074 0.99891531 22.686436
3.9792914 1.1804621 19.978683
5.974401 1.803932 19.998215
6.4299493 1.9585862 15.894735
8.4347477 2.5820708 16.232914
9.9263916 3.050036 15.324185
10.423429 3.2087178 13.134109
1.7221557 0.41099048 30.453537
3.1486981 0.88076341 30.450272
4.802525 1.4309682 19.330982
5.9272661 1.7874223 16.889681
4.673821 1.4192245 10.163486
10.869019 3.3230586 15.124691
12.195984 3.7776704 12.626527
3.4273002 0.98630553 22.671618
3.9843645 1.1668507 19.983578
6.0421724 1.8014036 20.203409
6.4423599 1.9378176 15.908544
8.4322462 2.5491469 16.210968
10.208949 3.0978954 15.741614
10.434566 3.1723137 13.134109
1.7238607 0.40504238 30.458529
3.153295 0.87019229 30.465187
4.8111086 1.4152595 19.345501
5.9417391 1.7691835 16.913145
4.6808314 1.4035263 10.167987
10.869012 3.2816143 15.10873
12.215917 3.7371621 12.633536
3.4269848 0.97327495 22.646923
3.9884136 1.1529355 19.983578
6.0670395 1.7857807 20.265446
6.4490848 1.9153178 15.908544
8.4319134 2.5169575 16.193413
10.346395 3.1002021 15.935862
1.7255456 0.39908746 30.463522
3.1563134 0.85917991 30.465187
4.8377476 1.4047654 19.43261
5.9660907 1.7537854 16.964766
4.6940522 1.3896503 10.185992
10.851524 3.2350459 15.06883
12.208405 3.6883097 12.612509
3.428865 0.96088743 22.637043
3.9924138 1.1390063 19.983578
6.0961714 1.7712549 20.341799
6.4688544 1.8966422 15.940762
8.4475403 2.4895403 16.206579
10.39763 3.0760422 15.997857
10.754549 3.1877449 13.506348
1.727491 0.39318952 30.473503
3.1598079 0.84829509 30.470158
4.8692055 1.3954878 19.539078
5.9754901 1.7339107 16.97415
4.709322 1.3763096 10.208498
9.9837942 2.9308975 17.089752
10.747126 3.1631172 14.909231
12.21437 3.6436331 12.6055
3.4314489 0.94870555 22.632103
4.0002861 1.1261668 20.003159
6.1023169 1.7499646 20.341799
6.4754357 1.87405 15.940762
8.4561787 2.4600377 16.206579
10.408304 3.0397289 15.997857
10.793297 3.1582861 13.540886
1.728853 0.38715705 30.473503
3.1637805 0.83753288 30.480101
4.9212189 1.391822 19.727816
5.9665761 1.7087662 16.931915
4.6994557 1.3556393 10.17699
9.9864492 2.893852 17.076954
10.477422 3.0440378 14.522198
3.4324911 0.93610865 22.617287
4.006155 1.1127412 20.012949
6.0925889 1.724182 20.289307
6.4575162 1.8444601 15.880928
8.4670153 2.4311662 16.210968
10.391811 2.995584 15.956527
10.801176 3.1197021 13.537047
1.7290661 0.38087213 30.453537
3.168232 0.82688773 30.495016
4.9308901 1.3759865 19.747173
5.9558973 1.6832356 16.884987
7.3527637 2.0932024 15.871025
10.004012 2.8611264 17.089752
10.409777 2.9850211 14.414467
3.4319859 0.92311257 22.59259
4.0159068 1.1003646 20.04232
6.0841928 1.6988901 20.241585
6.5560551 1.8478768 16.106453
8.5031023 2.409431 16.263638
10.402205 2.9592917 15.956527
10.812 3.0819798 13.537047
1.7289743 0.37452948 30.428579
3.1721318 0.81608909 30.504959
4.9514174 1.3631026 19.810083
5.970048 1.6647527 16.908451
10.023978 2.8290219 17.106815
10.396937 2.9421022 14.382546
3.4344361 0.91092789 22.58765
4.0197234 1.0863397 20.04232
6.0944037 1.6788313 20.255901
6.6057568 1.837019 16.212311
8.5206871 2.3823144 16.281195
10.444983 2.9320896 16.006123
10.835034 3.0476916 13.552398
1.7291415 0.36825201 30.408613
3.1723776 0.80435658 30.480101
4.9670625 1.3487748 19.85364
5.9824781 1.645734 16.927223
7.2539124 2.0104244 15.627959
10.375219 2.896879 14.338657
3.4473677 0.90148866 22.651861
4.0234909 1.0723016 20.04232
6.104548 1.6587217 20.270218
6.6479259 1.8237691 16.299757
8.5474205 2.3576515 16.316307
10.430748 2.8888526 15.968926
11.364477 3.1538448 14.197099
1.7290034 0.36191902 30.383656
3.1705115 0.79211581 30.435358
4.9850969 1.3350044 19.906874
5.9915171 1.6257451 16.936607
7.2398872 1.9793507 15.582948
10.971472 3.0138867 18.680944
10.382362 2.8598447 14.334666
11.565877 3.1945143 13.085977
3.4565129 0.89100075 22.691376
4.0242548 1.0574743 20.027634
6.111743 1.6377891 20.27499
6.6504798 1.7995319 16.290552
8.5440445 2.3246574 16.294361
11.529992 3.156472 14.388974
1.7311046 0.35605547 30.398628
3.1654923 0.77913374 30.360785
5.0492773 1.333318 20.144007
6.0021567 1.606159 16.950686
7.2446499 1.9534997 15.578445
11.007098 2.9823909 18.723604
10.380651 2.8204257 14.318706
11.573688 3.1532314 13.082302
3.4678862 0.88103378 22.745708
4.0239792 1.0423994 20.008055
6.1174226 1.6164453 20.27499
6.5868793 1.7576708 16.12026
8.5659847 2.2985427 16.320694
11.565694 3.1228898 14.419673
1.7320538 0.34995359 30.393637
3.1723375 0.76908362 30.400557
5.0684981 1.3194844 20.202078
6.0093956 1.585638 16.955379
7.2493215 1.9276401 15.573945
11.017441 2.9439509 18.723604
10.387523 2.7833934 14.314716
11.633732 3.1260083 13.137428
3.4762163 0.87024355 22.780283
4.0295668 1.0288506 20.017845
6.1201386 1.5943291 20.265446
6.5438504 1.7217436 16.000593
8.6133165 2.2790422 16.395309
11.610595 3.0915704 14.461885
1.7332649 0.34390548 30.393637
3.1734474 0.75763428 30.385643
5.0913363 1.3064697 20.27467
6.0165634 1.5650861 16.960072
7.258111 1.9028752 15.578445
11.032694 2.9068036 18.732136
10.394262 2.7463479 14.310727
11.618357 3.0784335 13.108027
3.4762154 0.85736001 22.760525
4.0311584 1.0142816 20.008055
6.1357875 1.5755546 20.298849
6.5517125 1.6993812 16.005196
11.705021 3.0729988 14.565498
1.7341713 0.33779809 30.388645
3.1755538 0.74643034 30.380671
5.0995216 1.2896141 20.289188
6.0236626 1.5445035 16.964766
7.2668176 1.878073 15.582948
10.389205 2.7062507 14.290775
11.57327 3.0232925 13.045549
3.4867375 0.84705418 22.809917
4.0406041 1.0016737 20.037424
6.1571679 1.5581551 20.351341
6.5916748 1.6852108 16.088041
8.8400955 2.2731292 16.794716
11.737397 3.0377431 14.592361
1.7353399 0.33174267 30.388645
3.1771011 0.73510087 30.370728
5.1003332 1.2708939 20.27467
6.0306897 1.5238901 16.969458
7.2733293 1.8526957 15.582948
12.194715 3.1220765 20.660339
10.421938 2.6759641 14.322697
11.560772 2.9769583 13.019823
3.4851389 0.8337937 22.780283
4.06287 0.99215174 20.130436
6.5406828 1.6478735 15.949966
8.8549414 2.2440224 16.807882
11.741717 2.9951689 14.584686
1.7362037 0.32563013 30.383656
3.1791279 0.72388798 30.365757
5.1010756 1.2521837 20.260151
6.0359721 1.5028299 16.969458
7.2818627 1.8278255 15.587448
10.44874 2.6440032 14.346636
11.603953 2.9449251 13.056576
3.4865155 0.82126701 22.770403
6.3737411 1.5656928 21.028963
6.5501871 1.6259735 15.95917
8.8441315 2.2084577 16.772772
11.742777 2.9518206 14.573174
1.7370458 0.31951559 30.378662
3.1811152 0.71266979 30.360785
5.1041937 1.2340747 20.255312
6.0478859 1.4833955 16.98823
7.2903128 1.8029188 15.59195
12.438943 3.0922329 21.035742
10.457906 2.6075139 14.346636
3.490118 0.80926722 22.775343
4.2004852 0.9947288 20.776606
6.3864222 1.5451897 21.052822
6.5216637 1.5947467 15.876327
8.798296 2.1644142 16.671822
1.7378663 0.31339914 30.373671
3.183063 0.70144671 30.355814
5.0876827 1.2113017 20.17304
6.0630908 1.4647064 17.016384
7.3007917 1.7784903 15.600953
12.474993 3.0549974 21.0784
10.458166 2.5688372 14.334666
3.4982243 0.79828912 22.809917
4.2118649 0.98190922 20.815765
6.4164624 1.5287684 21.133947
6.5689764 1.5820349 15.977581
8.7243299 2.11395 16.518204
1.7386653 0.30728087 30.368679
3.1854923 0.69033146 30.355814
5.0649567 1.1872252 20.066576
6.0883136 1.4483255 17.072699
7.3111887 1.7540104 15.609954
12.493186 3.0132675 21.091198
10.46707 2.5323157 14.334666
3.5047801 0.786924 22.834614
4.2152667 0.96720111 20.815765
6.4362922 1.50977 21.181665
6.5725579 1.5586445 15.972979
8.7666006 2.0918214 16.58404
1.7394429 0.30116084 30.363688
3.1878824 0.6792078 30.355814
5.0653954 1.1686902 20.052055
6.08325 1.4247036 17.044542
7.3236227 1.7299803 15.623459
10.426016 2.483892 14.266836
3.5105405 0.77535528 22.85437
4.2206039 0.95292956 20.825556
6.6045938 1.5419103 16.037415
8.8437939 2.0776389 16.715712
1.7399142 0.29499102 30.353704
3.1902339 0.66807586 30.355814
5.0584116 1.1484971 20.008501
6.0915494 1.4042356 17.053926
7.3380985 1.7063777 15.641463
12.905006 3.017417 21.748152
10.390617 2.4371619 14.206985
3.5223377 0.76507485 22.913643
4.2368264 0.94106066 20.889194
6.6053367 1.5008469 21.701813
6.5889912 1.5140342 15.986786
8.8883276 2.0553889 16.785938
1.739794 0.28872737 30.333736
3.1930685 0.65704316 30.360785
5.0538025 1.1289151 19.974625
6.0913653 1.3818185 17.03985
7.3461323 1.6812382 15.645964
12.920544 2.9735215 21.756683
10.425486 2.4069779 14.242896
3.5249867 0.75277495 22.913643
4.2500334 0.92843819 20.938147
6.6207328 1.4800601 21.735216
6.5694633 1.4854242 15.926952
8.9701767 2.0413556 16.926388
1.7399364 0.2825143 30.318762
3.1958652 0.6459989 30.365757
5.0564852 1.1109976 19.969786
6.0910988 1.3594196 17.02577
7.3519564 1.6555852 15.645964
13.009697 2.9462593 21.888927
3.5245512 0.73982763 22.893885
4.2661896 0.91637629 21.001785
6.5675435 1.4441191 21.544338
6.5479097 1.4565449 15.862517
1.7389158 0.27612329 30.283821
3.1981008 0.6348393 30.365757
5.0578752 1.0928096 19.960108
6.0890651 1.3366696 17.007
7.3640661 1.6313243 15.659467
10.93313 2.4439089 14.909231
3.5225461 0.72657865 22.864248
4.2773328 0.90316141 21.040947
6.5098076 1.4076211 21.339142
6.5357776 1.4299219 15.821095
1.7398691 0.27005166 30.283821
3.2002971 0.62367195 30.365757
5.0628886 1.0754087 19.964945
6.0936942 1.3154067 17.007
7.3548269 1.6023653 15.627959
11.029883 2.4251418 15.028932
3.5166841 0.71258163 22.809917
4.2994022 0.89215499 21.133957
6.4752593 1.3765095 21.210299
6.5483694 1.4087425 15.839505
1.7410867 0.26401985 30.288813
3.2029784 0.61259711 30.370728
5.0752244 1.0595272 19.998821
6.0898075 1.2923366 16.983536
7.3901763 1.5830657 15.690975
11.055952 2.3904462 15.052871
3.5176256 0.69999856 22.800037
4.3224435 0.88120872 21.231861
6.578095 1.3911303 15.899339
1.7425689 0.25802496 30.298796
3.205097 0.60141283 30.370728
5.0825863 1.0425625 20.013342
6.0942817 1.2710713 16.983536
7.4254808 1.5635389 15.753994
11.005281 2.3393092 14.973071
3.5253859 0.68875796 22.834614
4.3334804 0.86771417 21.271023
6.6116018 1.3741226 15.968375
1.7434589 0.2519407 30.298796
3.2071767 0.59022135 30.370728
5.1083741 1.0292828 20.100451
6.12573 1.2553331 17.058619
7.4223666 1.5358454 15.735989
10.839355 2.2645237 14.737659
3.5621085 0.68302965 23.056879
4.3584628 0.85690242 21.378717
6.8756185 1.3865184 22.470102
6.6163583 1.3510355 15.968375
1.7454712 0.24601385 30.318762
3.207644 0.57873887 30.355814
7.8641539 1.5559 30.902046
6.1571426 1.2393906 17.133703
7.4191489 1.5081925 15.717983
10.6878 2.1939549 14.522198
3.5743983 0.67245817 23.12109
4.3364334 0.83686113 21.256338
6.8818803 1.3627994 22.474873
6.5865545 1.321017 15.88553
1.7446032 0.23968476 30.288813
3.2122691 0.56800234 30.380671
5.122839 0.99503255 20.129486
6.1614313 1.2178906 17.133703
7.3987508 1.4771714 15.663969
3.6072884 0.66561437 23.318663
4.3263221 0.8192569 21.192699
6.867547 1.3350662 22.41284
6.6007109 1.2999052 15.908544
1.7448568 0.23351721 30.278828
3.2189593 0.55760413 30.425415
5.1324549 0.97832114 20.153685
6.1791978 1.1990052 17.171246
7.4252243 1.4555234 15.708981
3.6149421 0.65398633 23.353237
4.317143 0.8019194 21.133957
6.8721657 1.3110858 22.41284
6.6454887 1.2846426 16.005196
1.7430848 0.22709092 30.233904
3.2235138 0.54680991 30.450272
5.135839 0.96039957 20.153685
6.1816506 1.1771059 17.166555
7.4772902 1.4386437 15.808008
3.621793 0.64217734 23.382872
4.3038878 0.78392637 21.055634
6.8766999 1.2870895 22.41284
6.6499329 1.2614377 16.005196
1.7450125 0.22114958 30.25387
3.2311876 0.5365141 30.504959
5.1366868 0.94201279 20.144007
6.1908107 1.1564711 17.180632
7.4523187 1.406881 15.744991
3.6240127 0.62953109 23.382872
4.3005838 0.76782471 21.02626
1.74692 0.21519753 30.273838
3.2304101 0.52480483 30.480101
5.1374693 0.92363197 20.134327
6.1897178 1.1339214 17.166555
3.6177621 0.6154443 23.328539
4.2932081 0.75105417 20.97731
6.8164697 1.2266264 22.188555
1.7485206 0.20920072 30.288813
3.2364337 0.51419401 30.519873
11.207626 2.0126612 31.019602
14.813053 2.6894159 31.193155
3.6152897 0.60204679 23.298904
4.2857676 0.73434436 20.928356
6.8251195 1.2036024 22.202871
13.009142 2.3267641 31.193527
1.7501006 0.20319538 30.303789
3.2392623 0.50305706 30.529816
5.1363602 0.88646096 20.105289
11.219682 1.9744241 31.033678
14.845926 2.6418877 31.24267
3.6273391 0.59104711 23.363115
4.2762547 0.71735895 20.869614
6.8719363 1.1871392 22.341259
13.009487 2.2799904 31.175116
1.7516599 0.19718152 30.318762
3.2388906 0.49142733 30.509932
7.8376031 1.3244053 30.640717
11.229907 1.9358344 31.043062
14.855059 2.5900497 31.24267
3.6355186 0.57935947 23.402628
4.274713 0.70176804 20.850033
6.8524895 1.1591614 22.264906
13.023143 2.2355566 31.188923
1.7529114 0.19112815 30.328747
3.2390044 0.4798843 30.495016
6.0117526 0.99434179 23.497726
11.2417 1.8974843 31.05714
14.859718 2.5374475 31.233669
3.6582477 0.56989318 23.535988
4.2771368 0.6868422 20.850033
6.8800569 1.1391355 22.341259
13.034721 2.1907315 31.19813
1.7547164 0.18512867 30.348711
3.2390771 0.46834651 30.480101
6.0536523 0.97957402 23.647749
11.248254 1.8582319 31.05714
14.872778 2.4862797 31.24267
3.6617513 0.55735373 23.545868
4.2795081 0.67190802 20.850033
6.8839912 1.1151127 22.341259
13.042289 2.1452184 31.19813
1.7547777 0.17894422 30.33873
3.2391088 0.45681408 30.465187
6.0384121 0.95549071 23.575157
11.256376 1.8192322 31.061834
14.881367 2.4343488 31.24267
3.6636746 0.54456848 23.545868
4.2858534 0.65758318 20.869614
6.9364948 1.0987822 22.498735
13.049698 2.0996792 31.19813
1.7551041 0.17278968 30.333736
3.239099 0.44528705 30.450272
6.0417104 0.93440688 23.575157
11.264363 1.7801986 31.066528
14.889773 2.3823884 31.24267
3.6655533 0.53177655 23.545868
4.292151 0.64322221 20.889194
6.9579897 1.0773029 22.555998
13.058876 2.0544181 31.20273
1.7551217 0.16660793 30.323753
3.2390487 0.43376574 30.435358
11.270509 1.7408676 31.066528
14.900149 2.3307354 31.247171
3.6620016 0.51821649 23.511293
4.2983999 0.62882519 20.908777
6.9617076 1.0530084 22.555998
13.065968 2.0088215 31.20273
1.7548302 0.16040206 30.308779
3.2400146 0.42238787 30.430387
5.7956524 0.85497403 22.592754
11.278224 1.7017732 31.071222
14.908195 2.2787099 31.247171
3.661479 0.50511211 23.496473
4.3035927 0.61424863 20.923462
6.9845381 1.031536 22.618034
13.074832 1.9634907 31.207335
1.7556669 0.15430069 30.31377
3.2409403 0.41100854 30.425415
5.7898927 0.83348483 22.558878
11.284095 1.6623944 31.071222
14.916059 2.2266567 31.247171
3.6601396 0.49191442 23.476717
4.3087363 0.59964341 20.938147
9.5957851 1.3829232 31.040585
13.081607 1.9178391 31.207335
1.7533181 0.14793025 30.263855
3.2423551 0.39969304 30.425415
5.7927666 0.81326926 22.558878
11.289829 1.6229955 31.071222
14.925895 2.1748905 31.251675
3.6610637 0.47903436 23.471777
4.3138299 0.58500981 20.952833
9.5813389 1.3467187 30.97855
13.090156 1.8724407 31.211937
1.7555504 0.14194776 30.293804
3.2432013 0.38830936 30.420444
5.7930799 0.79270309 22.549198
11.295425 1.5835768 31.071222
14.933396 2.122776 31.251675
3.6604013 0.46595782 23.456961
4.3178644 0.57021463 20.962622
9.5874586 1.3134677 30.98332
13.096612 1.826736 31.211937
1.7577622 0.13595146 30.323753
3.2434781 0.37686324 30.410501
5.7945657 0.77231055 22.544359
11.302593 1.5443722 31.075912
14.942869 2.0709345 31.256172
3.6620054 0.45317778 23.456961
4.3228588 0.55552828 20.97731
9.5919857 1.2799933 30.98332
13.102908 1.7810092 31.211937
1.7596655 0.12992035 30.348711
3.2442439 0.36547944 30.405529
5.808445 0.75353414 22.587915
11.309626 1.5051371 31.080606
14.952166 2.019053 31.260675
3.6504505 0.43881679 23.372992
4.3267922 0.54068768 20.987101
9.5963945 1.2465031 30.98332
13.110981 1.7355169 31.216537
1.7612603 0.12385754 30.368679
3.2454998 0.35415268 30.405529
5.8110399 0.73325431 22.587915
11.316523 1.4658716 31.0853
14.959122 1.9668478 31.260675
3.6465573 0.4254418 23.338417
4.3296638 0.52570367 20.991995
9.600687 1.2129979 30.98332
13.11696 1.6897405 31.216537
1.7634103 0.11782334 30.398628
3.2467163 0.34282163 30.405529
5.8547354 0.71801347 22.747614
11.323281 1.4265763 31.089991
14.968056 1.9148949 31.265177
3.6402996 0.41183752 23.289026
4.3334947 0.51082546 21.001785
9.6048632 1.1794779 30.98332
13.124717 1.6441863 31.22114
1.7626584 0.11159486 30.378662
3.2478931 0.33148637 30.405529
5.8609509 0.69801807 22.762135
11.328193 1.3870419 31.089991
14.97681 1.862904 31.26968
3.6355357 0.39845124 23.24951
4.3332281 0.49546438 20.991995
9.608922 1.1459435 30.98332
13.132316 1.5985986 31.225744
1.7630371 0.10544135 30.378662
3.2495613 0.32019934 30.410501
5.8633518 0.67755532 22.762135
11.334679 1.3476945 31.094683
14.985382 1.8108747 31.274178
3.6299503 0.38502136 23.205057
4.3399916 0.480896 21.01647
9.6143465 1.1125668 30.988092
13.139757 1.5529779 31.230349
1.7631062 0.099270493 30.373671
3.2501283 0.30880392 30.405529
5.8619332 0.65666455 22.747614
11.339314 1.3081208 31.094683
14.993774 1.7588085 31.278681
3.624316 0.37163541 23.160606
4.357842 0.46748051 21.094793
9.6181717 1.0789996 30.988092
13.147038 1.5073245 31.234947
1.7637303 0.093130566 30.378662
3.2511864 0.29745698 30.405529
5.8779359 0.63768947 22.800848
11.345527 1.268723 31.099377
15.001986 1.7067058 31.283182
3.619405 0.35836995 23.12109
4.3736267 0.45373628 21.163328
9.6233635 1.0455806 30.992867
13.152219 1.4614236 31.234947
1.7643331 0.086987488 30.383656
3.2516742 0.28605977 30.400557
5.8751254 0.61664301 22.78149
11.349887 1.229112 31.099377
15.010015 1.6545672 31.287682
3.6144462 0.34514329 23.081575
4.3873415 0.43968448 21.222071
9.6269541 1.0119823 30.992867
13.159184 1.4157139 31.239552
1.7649143 0.080841325 30.388645
3.2526529 0.27470756 30.400557
5.9310164 0.60158396 22.989586
11.354108 1.189486 31.099377
15.017863 1.6023934 31.292183
3.6094389 0.33195567 23.042063
4.3878355 0.42426914 21.217175
9.6319141 0.97852284 30.997639
13.164045 1.3697711 31.239552
1.7654742 0.074692175 30.393637
3.2541232 0.26339492 30.405529
5.9330802 0.58087718 22.989586
11.358191 1.1498456 31.099377
15.025532 1.550185 31.296686
3.6051579 0.31887555 23.007488
4.3913178 0.40913901 21.226965
9.6367559 0.94504076 31.002409
13.170691 1.3240072 31.244154
1.7657242 0.068529062 30.393637
3.2555544 0.25207543 30.410501
5.982625 0.56465012 23.173485
11.362135 1.1101911 31.099377
15.033018 1.4979424 31.301188
3.6000552 0.30576372 22.967974
4.3927193 0.39380795 21.226965
9.6414824 0.91153693 31.007181
13.175232 1.2780248 31.244154
1.7659526 0.062365115 30.393637
3.2569458 0.24074909 30.415472
5.9182134 0.53773707 22.916996
11.365941 1.0705231 31.099377
15.04032 1.4456666 31.305687
3.5949051 0.29269141 22.928459
4.3960958 0.37864673 21.236755
9.6460915 0.87801158 31.011953
13.181556 1.2322086 31.248755
1.7661595 0.056200411 30.393637
3.2588301 0.22945352 30.425415
5.8824883 0.51379544 22.771814
11.371327 1.0309979 31.104071
15.045275 1.3931571 31.305687
3.5959048 0.28014106 22.928459
4.3953614 0.36313164 21.226965
9.6505852 0.8444652 31.016724
13.187724 1.1863639 31.253359
1.7663449 0.050035022 30.393637
3.260675 0.21814771 30.435358
5.9067922 0.49514785 22.858921
11.374858 0.99129826 31.104071
15.052216 1.340824 31.310188
3.5953112 0.26747215 22.918581
4.82901 0.3819699 23.312332
9.6549616 0.81089818 31.021496
13.193731 1.1404911 31.257961
1.7665088 0.043869022 30.393637
3.2619483 0.20679814 30.440329
5.9285321 0.47613576 22.936354
11.378248 0.95158654 31.104071
15.056805 1.2882738 31.310188
3.6008735 0.2552498 22.948217
4.8262529 0.36480439 23.292751
9.6592216 0.77731091 31.02627
13.197632 1.0944295 31.257961
1.7669399 0.037708484 30.398628
3.2631826 0.19544236 30.445301
5.8950663 0.45274439 22.800848
11.3815 0.91186321 31.104071
15.061209 1.2357079 31.310188
3.6017425 0.24267885 22.948217
4.8254657 0.34780908 23.282961
9.6633644 0.74370366 31.031042
13.20332 1.0485091 31.262566
1.7670608 0.031540483 30.398628
3.2643771 0.18408048 30.450272
5.869031 0.43014351 22.694384
11.386333 0.87226057 31.108761
15.067602 1.1832975 31.314692
3.6087708 0.23050065 22.98773
4.83884 0.33179826 23.341703
9.6659012 0.70996773 31.031042
13.206899 1.0024146 31.262566
1.7668713 0.025368119 30.393637
3.2649999 0.17268457 30.450272
5.8755121 0.41000405 22.713739
11.389309 0.83250946 31.108761
15.075981 1.1310201 31.323692
3.6142068 0.21818283 23.017366
4.8491135 0.31550008 23.385759
9.6683207 0.6762231 31.031042
13.212266 0.95644891 31.267166
1.7669491 0.019200431 30.393637
3.2655826 0.16128655 30.450272
5.8769078 0.38949215 22.713739
11.393867 0.79286814 31.113455
15.082009 1.0785435 31.328194
3.6203771 0.20587394 23.051941
4.8593316 0.29913425 23.429817
9.6706228 0.64247024 31.031042
13.217474 0.91045791 31.271769
1.7664281 0.013028582 30.383656
3.2650607 0.14983781 30.440329
5.8882675 0.36960521 22.752455
11.398289 0.75320512 31.118149
15.087854 1.0260386 31.332697
3.6257286 0.19348325 23.081575
4.8664455 0.28252402 23.45919
9.6772757 0.60899073 31.045359
13.224471 0.86456972 31.280975
1.7658854 0.0068606026 30.373671
3.2692916 0.13859725 30.475128
5.8995595 0.34964365 22.79117
11.400848 0.71341306 31.118149
15.095688 0.97364616 31.341698
3.6310382 0.18105772 23.111212
4.884686 0.26647735 23.542408
9.6823225 0.57538408 31.054901
13.229357 0.81852293 31.285576
1.7656099 0.00069627509 30.368679
3.2729518 0.12730835 30.504959
5.900744 0.32904822 22.79117
11.40499 0.67371404 31.122839
15.101169 0.92107898 31.346199
3.6363053 0.16859749 23.140848
4.8896537 0.24963243 23.561989
9.6887417 0.54183286 31.069216
13.234084 0.77245271 31.29018
1.7656015 -0.0054668575 30.368679
3.2733762 0.11588285 30.504959
5.8692203 0.30674407 22.665346
11.407273 0.63389909 31.122839
15.104291 0.86836046 31.346199
3.6415293 0.15610267 23.170483
4.8874445 0.23241791 23.547304
9.6950455 0.50824392 31.08353
13.2367 0.72625244 31.29018
1.7655716 -0.011629923 30.368679
3.2753589 0.10450672 30.519873
5.8815551 0.28680548 22.7089
11.41114 0.59416616 31.127533
15.111577 0.81586599 31.3552
3.6474864 0.14360394 23.205057
9.7310534 0.47607598 31.193289
13.239155 0.68004328 31.29018
1.7658091 -0.01779592 30.373671
3.2735727 0.093012661 30.499989
5.8825202 0.26627326 22.7089
11.413144 0.55433023 31.127533
15.116508 0.76322156 31.359703
3.6495185 0.13092655 23.214935
6.3661752 0.25814 30.655174
9.7714262 0.44386593 31.317362
13.241447 0.6338259 31.29018
1.7654474 -0.023955554 30.368679
3.2701473 0.081492729 30.465187
5.8922048 0.24610473 22.742777
11.41501 0.5144875 31.127533
15.121256 0.71055263 31.364204
3.6546133 0.11833706 23.244572
6.3670378 0.23591633 30.655174
9.7609844 0.40925452 31.279184
13.243579 0.58760077 31.29018
1.7653531 -0.03011797 30.368679
3.2640164 0.069941089 30.405529
5.9005647 0.2258238 22.771814
11.418462 0.47471023 31.132227
15.125816 0.65785974 31.368704
3.6503439 0.10544511 23.214935
6.3678222 0.21368977 30.655174
13.247502 0.54144824 31.294783
1.7649486 -0.036273926 30.363688
3.2674384 0.058604062 30.435358
5.8988047 0.20513831 22.762135
11.421772 0.4349151 31.136921
15.132373 0.60523087 31.377708
3.6506896 0.092702396 23.214935
6.3705649 0.19152175 30.664963
13.249311 0.49520251 31.294783
1.7648113 -0.042434525 30.363688
3.2670903 0.047190584 30.430387
5.8982277 0.18450713 22.757294
11.424945 0.39510268 31.141611
15.134393 0.55240536 31.377708
3.6494372 0.079924643 23.205057
6.3610158 0.16901307 30.616011
13.252912 0.4490169 31.299383
1.7649409 -0.048602715 30.368679
3.2709663 0.0358264 30.465187
5.8988357 0.16391735 22.757294
11.42798 0.35527337 31.146305
15.138406 0.49964491 31.38221
3.6489174 0.067171015 23.200119
6.3544416 0.14664376 30.581745
13.254397 0.40275288 31.299383
1.7650491 -0.054772332 30.373671
3.2662737 0.024373211 30.420444
5.9106817 0.1436 22.800848
11.429151 0.31538013 31.146305
15.140057 0.44679895 31.38221
3.6514602 0.05446808 23.214935
6.3538966 0.12444183 30.576851
13.261582 0.3566415 31.313194
1.7654241 -0.06095342 30.383656
3.2652731 0.012967546 30.410501
5.9237142 0.12322804 22.849245
11.431908 0.27552459 31.150997
15.143699 0.39400411 31.386709
3.653959 0.041748222 23.229755
6.3542924 0.10226183 30.576851
13.256886 0.31021068 31.299383
1.7637583 -0.067059867 30.358694
3.263166 0.0015687926 30.390614
5.9492435 0.10298403 22.946032
11.432799 0.23561808 31.150997
15.144982 0.34114036 31.386709
3.6556368 0.029005473 23.239634
6.3556285 0.080093384 30.581745
13.263749 0.26405025 31.313194
1.7626482 -0.073179707 30.343721
3.2615526 -0.009817224 30.3757
5.9835019 0.082684599 23.076696
11.433553 0.19570874 31.150997
15.146081 0.28827241 31.386709
3.6572692 0.016251525 23.24951
6.3568873 0.05791685 30.586639
13.321237 0.21867894 31.446663
1.7618052 -0.079305761 30.333736
3.2636306 -0.021216249 30.395584
5.9774694 0.06173306 23.0525
11.434166 0.15579699 31.150997
15.149172 0.2354348 31.391211
3.6588578 0.0034865304 23.25939
6.3580694 0.035732508 30.591536
1.7606525 -0.085412666 30.318762
3.2635365 -0.032608315 30.395584
5.9638219 0.040773302 22.999266
11.43464 0.11588336 31.150997
15.152079 0.18257912 31.395712
3.6596251 -0.0092878342 23.26433
6.3591733 0.013540621 30.59643
1.7597672 -0.091527648 30.308779
3.2639358 -0.044007245 30.400557
5.9764981 0.019997116 23.047661
11.436699 0.075979754 31.155687
15.154799 0.12970597 31.400211
3.6595702 -0.022062251 23.26433
6.3612185 -0.0086608529 30.60622
1.7588605 -0.097637489 30.298796
3.2642953 -0.055409353 30.405529
6.0142403 -0.00087229512 23.192842
11.436894 0.036057759 31.155687
15.157337 0.076816082 31.404715
3.6618018 -0.034858778 23.279146
6.3631864 -0.030875549 30.616011
14.594818 0.035771962 34.442909
1.7579325 -0.10374212 30.288813
3.264082 -0.06680353 30.405529
6.0217419 -0.021893548 23.221878
11.436951 -0.003866276 31.155687
15.15969 0.023910055 31.409216
3.65855 -0.047599953 23.25939
6.3640575 -0.053095553 30.620905
14.606576 -0.015187998 34.47052
1.7581359 -0.10991418 30.298796
3.263829 -0.078196891 30.405529
6.0266571 -0.042949196 23.241236
11.436868 -0.04378866 31.155687
15.161859 -0.029013591 31.413717
3.6669073 -0.060512096 23.313721
6.3658695 -0.075334109 30.630695
14.610342 -0.066192105 34.479729
1.7577415 -0.11605054 30.298796
3.263536 -0.089589305 30.405529
6.0151582 -0.063865453 23.197681
11.438372 -0.083723165 31.160381
15.161665 -0.081938177 31.413717
3.6573517 -0.073124491 23.254452
6.3655682 -0.097554684 30.630695
14.613928 -0.11722267 34.488934
1.7573256 -0.1221855 30.298796
3.2632034 -0.10098063 30.405529
6.0035863 -0.084701955 23.154127
11.438009 -0.12365003 31.160381
15.163463 -0.13488114 31.418217
3.6594043 -0.085945502 23.269268
6.363153 -0.11973568 30.620905
14.601709 -0.16809906 34.461319
1.7568885 -0.12831898 30.298796
3.2633641 -0.11238915 30.410501
6.0133085 -0.10583512 23.192842
11.439234 -0.16360007 31.165075
15.165077 -0.18783766 31.422718
4.8148355 -0.12999246 30.618885
6.3616781 -0.14192376 30.616011
14.610802 -0.21921414 34.484333
1.7564298 -0.13445088 30.298796
3.2629521 -0.12377974 30.410501
6.019186 -0.12695757 23.217039
11.440319 -0.20356017 31.169769
15.164329 -0.24077252 31.422718
4.8042564 -0.14649011 30.554674
6.359108 -0.16407669 30.60622
1.7556621 -0.14055794 30.293804
3.2625 -0.13516881 30.410501
7.9676743 -0.19593978 30.722986
11.439539 -0.24349311 31.169769
15.165573 -0.29374659 31.427221
4.8044925 -0.16328566 30.559614
6.3564606 -0.1862134 30.59643
1.7548732 -0.14666128 30.288813
3.2620082 -0.14655623 30.410501
7.9744811 -0.22396286 30.752024
11.440343 -0.2834658 31.174459
15.164454 -0.34668255 31.427221
4.8054457 -0.18011375 30.56949
6.3547544 -0.20836708 30.591536
1.7543504 -0.15278605 30.288813
3.2614768 -0.15794186 30.410501
7.9686251 -0.25163883 30.732666
