# .PCD v0.7 - Point Cloud Data file format
VERSION 0.7
FIELDS x y z
SIZE 4 4 4
TYPE F F F
COUNT 1 1 1
WIDTH 1484
HEIGHT 1
VIEWPOINT 0 0 0 1 0 0 0
POINTS 1484
DATA ascii
-0.90654337 1.0953444 1.7789344
-0.14177445 0.19421227 3.9977469
-0.27135944 0.34513342 4.0515871
-0.68944961 0.84838867 4.2464962
-1.0145611 1.2402354 4.4116149
-1.0441475 1.2714684 3.4656792
-0.95585376 1.1610765 2.5301185
-0.91600013 1.1110997 1.9815515
-0.88565671 1.0727837 1.5863868
-0.87527138 1.0538225 1.4259976
-0.85051489 1.0229397 1.1550683
-0.83563763 1.0046967 0.941383
-0.81990135 0.98508823 0.75744677
-0.81032723 0.97324729 0.59998888
-0.80763751 0.96968049 0.46087852
-0.78940648 0.94712669 0.32555979
-0.78740346 0.94472748 0.20335729
-0.85962296 1.0379339 1.2814735
-0.84250271 1.0165507 1.0449109
-0.82655454 0.9969607 0.84662414
-0.80939567 0.97523564 0.67333251
-0.8057425 0.97049725 0.5281564
-0.79510123 0.95734775 0.39086631
-0.78140515 0.94086057 0.26279593
-0.78840584 0.94896102 0.14344354
-0.02032382 0.042878374 3.9191241
-0.4030818 0.50536621 4.1098871
-0.55578184 0.6904065 4.284584
-0.89433169 1.1002424 4.5799346
-1.1080489 1.3564965 4.185914
-1.0003847 1.2212269 2.9603386
-0.9342283 1.1380525 2.2351375
-0.90474939 1.1009787 1.7827719
-0.14109565 0.19470598 3.9977469
-0.27015308 0.34607854 4.0515871
-0.68648392 0.85079008 4.2464962
-1.0102257 1.2437694 4.4116149
-1.0438298 1.2801672 3.479183
-0.95509601 1.1684448 2.5386503
-0.91593313 1.1189539 1.9895315
-0.88835382 1.0837344 1.5974122
-0.87385643 1.0596228 1.4295021
-0.84941685 1.028904 1.1582067
-0.83478802 1.0108316 0.94412446
-0.81927961 0.99135894 0.75976557
-0.80987883 0.97964299 0.60186189
-0.80730492 0.97619045 0.46228856
-0.78922737 0.95366073 0.32649243
-0.78727597 0.95130682 0.20380437
-0.86073756 1.0466962 1.2881246
-0.84408575 1.0257276 1.0507972
-0.82580912 1.0031681 0.84915733
-0.8088727 0.98155761 0.67543054
-0.80535358 0.97694755 0.52979988
-0.79484701 0.96386737 0.39203864
-0.78126669 0.94740307 0.26348662
-0.78826773 0.95556116 0.14364508
-0.020174021 0.042949054 3.9191241
-0.40179735 0.50737947 4.1148257
-0.552733 0.6915468 4.2796893
-0.8904857 1.1033574 4.5799346
-1.1082293 1.3664256 4.2043238
-1.0006491 1.230286 2.973506
-0.93380564 1.1456692 2.2434032
-0.90292686 1.1066136 1.7866094
-0.14024754 0.19496225 3.9927554
-0.26861727 0.34659776 4.0466156
-0.68350995 0.85318118 4.2464962
-1.0069612 1.2486315 4.4163079
-1.0420942 1.2871871 3.4881854
-0.95594174 1.1778468 2.5514481
-0.91582239 1.1268212 1.9975116
-0.88884538 1.0920877 1.6047627
-0.87467092 1.0681853 1.4365112
-0.84828758 1.034873 1.1613452
-0.83390576 1.0169728 0.94686598
-0.81862414 0.99763721 0.76208436
-0.80939561 0.98604745 0.60373497
-0.80998081 0.98641735 0.4651086
-0.78901231 0.9602052 0.32742503
-0.78711212 0.95789677 0.20425145
-0.85943997 1.0525866 1.29145
-0.84305751 1.0317979 1.0537404
-0.82503051 1.0093824 0.85169047
-0.80831558 0.98788768 0.67752856
-0.80492944 0.98340702 0.53144342
-0.79455692 0.97039688 0.39321095
-0.78422934 0.95778757 0.26486799
-0.78809303 0.96217185 0.1438466
-0.020009998 0.042977884 3.9141245
-0.40050381 0.50938994 4.1197653
-0.54968297 0.69267428 4.2747941
-1.1071287 1.3748511 4.218132
-1.0008622 1.2393614 2.9866731
-0.93511128 1.1554843 2.2558022
-0.9010762 1.1122494 1.790447
-0.13956612 0.19545063 3.9927554
-0.26740578 0.34753329 4.0466156
-0.68052763 0.85556191 4.2464962
-1.0025965 1.2521387 4.4163079
-1.0416859 1.2959073 3.501689
-0.95509708 1.185238 2.5599799
-0.91566795 1.1347013 2.0054917
-0.88928938 1.1004574 1.612113
-0.87543613 1.0767663 1.4435203
-0.84958375 1.0438656 1.1676221
-0.83299071 1.0231203 0.94960743
-0.81513667 1.0004886 0.76208436
-0.80887753 0.99246031 0.60560799
-0.80956388 0.9929567 0.46651864
-0.78876108 0.96675968 0.32835767
-0.78376359 0.96063846 0.20425145
-0.86046308 1.0613811 1.2981011
-0.84199721 1.0378734 1.0566835
-0.82421839 1.0156034 0.85422367
-0.807724 0.99422586 0.67962664
-0.80446988 0.98987538 0.5330869
-0.79423094 0.97693598 0.39438328
-0.78400511 0.96436167 0.26555866
-0.78472966 0.964917 0.1438466
-0.019859856 0.043047469 3.9141245
-0.39872327 0.51078486 4.1197653
-0.54663175 0.69378883 4.2698989
-1.239586 1.5581374 6.4123764
-1.1059824 1.383285 4.2319393
-1.0010244 1.2484534 2.9998405
-0.93459731 1.163129 2.2640681
-0.90120596 1.1203831 1.7981219
-0.13871707 0.19570038 3.9877636
-0.26619101 0.34846461 4.0466156
-0.67753702 0.85793215 4.2464962
-0.99929351 1.2569818 4.4210005
-1.0412297 1.3046402 3.5151925
-0.95584178 1.1946745 2.5727777
-0.91546953 1.142594 2.0134716
-0.88968575 1.1088436 1.6194633
-0.87391216 1.0825906 1.4470248
-0.84838122 1.0498523 1.1707606
-0.83204287 1.0292735 0.95234889
-0.81442529 1.0067719 0.76440316
-0.8083244 0.99888146 0.607481
-0.81212938 1.0032336 0.46933872
-0.78847373 0.97332412 0.32929027
-0.78354031 0.96723813 0.20469853
-0.85909402 1.0672867 1.3014265
-0.84344018 1.0471019 1.0625699
-0.82337296 1.021831 0.85675687
-0.80709797 1.0005718 0.68172467
-0.80397511 0.99635249 0.53473043
-0.7938689 0.98348463 0.39555559
-0.78685486 0.97479922 0.26694003
-0.78449529 0.97153729 0.14404814
-0.01970947 0.043116532 3.9141245
-0.39741355 0.51278794 4.1247044
-0.54420662 0.69569266 4.2698989
-1.2424659 1.5729979 6.4553246
-1.1060054 1.3932582 4.2503495
-1.001135 1.2575614 3.0130074
-0.93404114 1.1707839 2.2723341
-0.89928967 1.1260267 1.8019594
-0.13803311 0.1961834 3.9877636
-0.26529473 0.34981674 4.0515871
-0.67531353 0.86128122 4.2513356
-0.99596864 1.261817 4.425693
-1.0434289 1.3167982 3.5376985
-0.956532 1.2041302 2.5855753
-0.91710299 1.1528571 2.0254416
-0.89003426 1.1172458 1.6268137
-0.87458837 1.0912002 1.454034
-0.84714717 1.0558432 1.1738991
-0.8310622 1.0354326 0.95509034
-0.81367993 1.0130625 0.76672196
-0.8077364 1.0053109 0.60935402
-0.81162763 1.0098014 0.47074872
-0.78815013 0.97989821 0.3302229
-0.78328037 0.97384775 0.2051456
-0.85769421 1.0731959 1.304752
-0.84230447 1.0531964 1.065513
-0.82249403 1.0280651 0.85929
-0.80643749 1.0069256 0.68382275
-0.8034448 1.0028383 0.53637397
-0.79347068 0.99004257 0.39672789
-0.78654426 0.98140419 0.2676307
-0.78422427 0.97816765 0.14424966
-0.019572394 0.043226544 3.9191241
-0.39562118 0.51417208 4.1247044
-0.54177487 0.69758809 4.2698989
-1.2415727 1.5831987 6.4791846
-1.1059723 1.4032482 4.2687593
-0.99970931 1.2648064 3.021786
-0.93519008 1.1806549 2.2847328
-0.89933634 1.1341821 1.8096343
-0.13734746 0.19666404 3.9877636
-0.26407203 0.35074064 4.0515871
-0.67230302 0.86363328 4.2513356
-0.99262238 1.2666442 4.4303861
-1.0442097 1.3272765 3.5557036
-0.95878279 1.2156532 2.6026392
-0.91867578 1.1631455 2.0374117
-0.89033484 1.1256638 1.634164
-0.8729946 1.097037 1.4575385
-0.84830678 1.0648829 1.180176
-0.8326546 1.0448675 0.96057326
-0.8129006 1.0193601 0.76904076
-0.81000423 1.0153725 0.61310011
-0.81408215 1.0201274 0.47356883
-0.78779012 0.9864819 0.33115551
-0.78298378 0.98046744 0.20559268
-0.85626358 1.0791081 1.3080776
-0.84113646 1.0592957 1.0684562
-0.82426274 1.0376809 0.8643564
-0.80574238 1.0132867 0.68592077
-0.80287898 1.0093322 0.53801745
-0.79606295 1.0004132 0.39907253
-0.78928047 0.99189359 0.26901206
-0.78080505 0.98089916 0.14424966
-0.019421386 0.043294601 3.9191241
-0.39382395 0.5155499 4.1247044
-0.538715 0.69866854 4.2650032
-1.2470423 1.6016574 6.5364485
-1.1058828 1.4132549 4.2871695
-0.99972355 1.2739409 3.0349529
-0.93454206 1.1883361 2.2929986
-0.89933699 1.1423515 1.8173094
-0.13666014 0.19714227 3.9877636
-0.26316479 0.35208756 4.0565586
-0.67005265 0.86696935 4.2561746
-0.98819494 1.2701014 4.4303861
-1.04761 1.3412074 3.582711
-0.95935714 1.225153 2.615437
-0.92018795 1.1734591 2.049382
-0.89058763 1.1340977 1.6415143
-0.87358147 1.1056744 1.4645475
-0.84699893 1.0708904 1.1833144
-0.83159661 1.051047 0.96331471
-0.81483698 1.0291374 0.77367836
-0.80933332 1.0218279 0.61497313
-0.81349534 1.0267228 0.47497886
-0.78739375 0.99307495 0.33208814
-0.78265053 0.98709679 0.20603976
-0.85480213 1.0850235 1.311403
-0.83993608 1.0653996 1.0713993
-0.82330489 1.0439367 0.86688954
-0.8050127 1.0196553 0.68801886
-0.80227762 1.0158346 0.53966099
-0.79557925 1.0069999 0.40024486
-0.78888321 0.99852842 0.26970273
-0.78047407 0.98753828 0.1444512
-0.019270143 0.043362129 3.9191241
-0.39202195 0.5169214 4.1247044
-0.53627294 0.70054471 4.2650032
-0.87083477 1.1264887 4.5990224
-1.1057369 1.4232779 4.3055797
-0.9982143 1.2812015 3.0437312
-0.93385172 1.1960273 2.3012645
-0.89929152 1.1505346 1.8249844
-0.13613379 0.19785662 3.9927554
-0.26193419 0.35300401 4.0565586
-0.66778737 0.87030041 4.2610145
-0.98481023 1.2749089 4.4350791
-1.0482578 1.3517375 3.6007156
-0.96147716 1.2367305 2.6325009
-0.9216392 1.183797 2.061352
-0.89079219 1.1425468 1.6488646
-0.87191749 1.1115229 1.468052
-0.84806335 1.0799631 1.1895914
-0.83050573 1.0572317 0.96605617
-0.81397724 1.0354582 0.77599716
-0.80862725 1.028291 0.61684614
-0.81287229 1.0333266 0.4763889
-0.78999937 1.0035371 0.33395338
-0.77920014 0.98982275 0.20603976
-0.85330981 1.0909418 1.3147285
-0.84119457 1.0746909 1.0772856
-0.82231355 1.0501984 0.86942273
-0.80424833 1.0260311 0.69011688
-0.80164045 1.0223448 0.54130447
-0.79505908 1.0135952 0.40141717
-0.78844911 1.0051725 0.2703934
-0.78010619 0.99418712 0.14465272
-0.019131774 0.043470748 3.924124
-0.39021516 0.51828671 4.1247044
-0.53320843 0.70160162 4.2601085
-0.8696233 1.1330742 4.6133385
-1.1043411 1.43177 4.319387
-0.99813187 1.2903615 3.0568984
-0.934843 1.205952 2.3136635
-0.8991999 1.1587312 1.8326594
-0.13544232 0.19833061 3.9927554
-0.2610161 0.35434568 4.0615301
-0.66474539 0.87262613 4.2610145
-0.98035395 1.2783388 4.4350791
-1.0475168 1.3605634 3.6142192
-0.96193469 1.2462732 2.6452987
-0.92302942 1.1941594 2.0733221
-0.89094859 1.151011 1.656215
-0.87241471 1.120187 1.4750612
-0.84668148 1.0859865 1.1927298
-0.83195323 1.0667187 0.97153914
-0.81580871 1.0452775 0.78063476
-0.80788577 1.0347615 0.61871922
-0.80926037 1.0361577 0.4763889
-0.7925415 1.0140294 0.33581862
-0.77880692 0.99646038 0.20648684
-0.85407645 1.0998118 1.3213795
-0.83991826 1.0808125 1.0802288
-0.82393396 1.0598693 0.87448907
-0.80623657 1.0359958 0.69431299
-0.80096769 1.028863 0.54294801
-0.79450268 1.0201993 0.40258947
-0.78797829 1.0118256 0.2710841
-0.77970141 1.0008452 0.14485426
-0.018966949 0.043495603 3.9191241
-0.38840362 0.51964563 4.1247044
-0.53014308 0.7026456 4.2552133
-0.86656737 1.1372902 4.6181107
-1.1040875 1.441821 4.3377976
-0.99799746 1.2995365 3.0700655
-0.93406016 1.2136682 2.3219295
-0.89906186 1.1669414 1.8403344
-0.13474919 0.19880217 3.9927554
-0.26009184 0.35568523 4.0665016
-0.66245329 0.87594384 4.2658539
-0.97588575 1.2817531 4.4350791
-1.048049 1.3711301 3.6322241
-0.96075088 1.2537637 2.6538305
-0.92252415 1.2021552 2.0813022
-0.888991 1.1568021 1.6598901
-0.87286192 1.1288682 1.4820702
-0.84765029 1.0950913 1.1990067
-0.83078462 1.0729226 0.97428066
-0.81486833 1.0516205 0.78295356
-0.80994898 1.0449034 0.62246525
-0.80857807 1.0427672 0.47779894
-0.79501987 1.0245513 0.33768386
-0.77532393 0.99917281 0.20648684
-0.85479158 1.1087005 1.3280305
-0.83860934 1.0869379 1.083172
-0.8228631 1.0661515 0.87702227
-0.80539012 1.0423952 0.69641101
-0.80025917 1.0353889 0.54459149
-0.79390967 1.0268116 0.4037618
-0.78747058 1.0184877 0.27177477
-0.7762031 1.0035608 0.14485426
-0.018815005 0.043561544 3.9191241
-0.38658738 0.52099824 4.1247044
-0.5270769 0.7036767 4.2503181
-0.86169183 1.1391177 4.6133385
-1.1025946 1.4503323 4.3516049
-0.99926305 1.3106308 3.0876219
-0.9349432 1.2236297 2.3343282
-0.8988775 1.1751645 1.8480093
-0.13405442 0.19927134 3.9927554
-0.25916141 0.35702267 4.0714731
-0.6593917 0.8782509 4.2658539
-0.97140563 1.2851517 4.4350791
-1.0485198 1.3817171 3.650229
-0.96110559 1.2633369 2.6666281
-0.92380011 1.212559 2.093272
-0.8890602 1.1652889 1.6672404
-0.87108761 1.1347371 1.4855748
-0.84619421 1.1011299 1.2021452
-0.83213109 1.0824462 0.97976357
-0.8138935 1.0579696 0.78527236
-0.80912399 1.0513983 0.62433827
-0.80493325 1.0455834 0.47779894
-0.79743439 1.0351031 0.33954909
-0.77487057 1.0058182 0.20693392
-0.85545504 1.1176075 1.3346816
-0.83972573 1.0962764 1.0890583
-0.82175833 1.0724391 0.87955546
-0.80450886 1.0488014 0.6985091
-0.79951477 1.0419223 0.54623502
-0.79328024 1.0334324 0.40493411
-0.78692591 1.0251585 0.27246544
-0.775738 1.0102266 0.14505579
-0.018662833 0.043626957 3.9191241
-0.3847664 0.52234453 4.1247044
-0.52401006 0.70469505 4.2454224
-0.85591793 1.1397314 4.6037946
-1.1022326 1.4604098 4.3700151
-0.99901807 1.31984 3.1007893
-0.93576789 1.2336118 2.3467271
-0.89864647 1.1834003 1.8556844
-0.133358 0.19973806 3.9927554
-0.25791359 0.35792515 4.0714731
-0.65632206 0.88054729 4.2658539
-0.9669137 1.2885348 4.4350791
-1.0476198 1.3905852 3.6637325
-0.95983332 1.2708465 2.6751602
-0.92319715 1.220583 2.1012521
-0.88908082 1.1737902 1.6745907
-0.87144458 1.1434438 1.492584
-0.84706712 1.1102661 1.2084221
-0.83088434 1.0886683 0.98250502
-0.81288427 1.0643246 0.78759116
-0.80826348 1.0579001 0.62621135
-0.80127859 1.0483867 0.47779894
-0.79680061 1.0417821 0.3404817
-0.77438033 1.0124725 0.207381
-0.85606664 1.1265326 1.3413326
-0.83834052 1.1024184 1.0920014
-0.8206197 1.0787319 0.8820886
-0.80634224 1.0588247 0.7027052
-0.79873449 1.0484632 0.5478785
-0.79261422 1.0400611 0.40610644
-0.78634429 1.0318378 0.27315614
-0.77523565 1.0169013 0.14525732
-0.018497901 0.043650042 3.9141245
-0.38294074 0.52368444 4.1247044
-0.52094257 0.70570064 4.2405276
-0.85104215 1.1415153 4.5990224
-1.1006422 1.4689391 4.3838224
-0.998721 1.3290633 3.1139565
-0.93653435 1.2436147 2.3591259
-0.89836913 1.1916491 1.8633596
-0.13265999 0.20020235 3.9927554
-0.25697231 0.3592571 4.0764446
-0.65324438 0.88283288 4.2658539
-0.96240997 1.2919019 4.4350791
-1.0479743 1.401207 3.6817374
-0.96008474 1.2804493 2.687958
-0.92254931 1.2286173 2.1092322
-0.88701558 1.1795962 1.6782659
-0.87175119 1.1521667 1.499593
-0.84553647 1.1163189 1.2115605
-0.83212942 1.0982276 0.987988
-0.81184053 1.0706856 0.78990996
-0.80736738 1.0644085 0.62808436
-0.80051374 1.0549988 0.47920895
-0.79612988 1.0484694 0.34141433
-0.77385294 1.0191356 0.20782807
-0.85662633 1.1354754 1.3479836
-0.83935797 1.1117898 1.0978878
-0.81944722 1.08503 0.8846218
-0.80537838 1.0652533 0.70480323
-0.79791826 1.0550113 0.54952204
-0.79191154 1.0466977 0.40727875
-0.78572547 1.0385256 0.27384681
-0.77469629 1.0235848 0.14545885
-0.018345421 0.043714348 3.9141245
-0.38156658 0.52564698 4.1296439
-0.51787436 0.70669329 4.2356324
-0.84527665 1.1420792 4.589479
-1.1001716 1.4790425 4.4022326
-0.99980348 1.3402205 3.1315129
-0.93724227 1.2536379 2.3715248
-0.89804494 1.1999102 1.8710346
-0.13196035 0.20066419 3.9927554
-0.25540853 0.35971698 4.0714731
-0.65015864 0.88510776 4.2658539
-0.95789456 1.2952536 4.4350791
-1.0482675 1.4118483 3.6997426
-0.96028078 1.2900692 2.7007556
-0.92185658 1.236662 2.1172123
-0.88694859 1.1881188 1.6856163
-0.87414932 1.1637572 1.5101067
-0.84631306 1.1254857 1.2178375
-0.83080441 1.1044674 0.99072945
-0.81076229 1.0770521 0.79222876
-0.80643564 1.0709237 0.62995738
-0.79971248 1.0616183 0.48061898
-0.79542214 1.0551646 0.34234694
-0.77628624 1.029784 0.20872223
-0.85713387 1.1444358 1.3546345
-0.83789605 1.1179475 1.1008309
-0.82082647 1.0947819 0.88968813
-0.80437946 1.0716879 0.70690131
-0.79990131 1.0653427 0.55280906
-0.79117215 1.0533421 0.40845108
-0.7880435 1.049181 0.27522817
-0.77411968 1.0302769 0.14566039
-0.018192718 0.043778118 3.9141245
-0.37972942 0.52697575 4.1296439
-0.51480561 0.70767319 4.2307367
-0.84040117 1.1438198 4.5847068
-1.0996438 1.4891605 4.4206429
-0.99939501 1.3494765 3.14468
-0.93789154 1.2636809 2.3839235
-0.89958537 1.2107561 1.882547
-0.1312591 0.2011236 3.9927554
-0.25476462 0.36147833 4.0814157
-0.64706516 0.88737184 4.2658539
-0.95438868 1.2999805 4.4397717
-1.0510819 1.4260134 3.7267497
-0.96197116 1.3018036 2.7178197
-0.92111897 1.2447168 2.1251922
-0.88481426 1.1939313 1.6892914
-0.8743453 1.1725194 1.5171157
-0.84703588 1.1346712 1.2241144
-0.83194774 1.1140614 0.99621236
-0.80964935 1.0834241 0.79454756
-0.80546832 1.0774454 0.63183039
-0.79887486 1.0682449 0.48202902
-0.7917341 1.0579348 0.34234694
-0.77567071 1.0364745 0.20916931
-0.8575893 1.1534135 1.3612856
-0.8364014 1.1241083 1.103774
-0.81957382 1.1010987 0.89222133
-0.80605716 1.0817679 0.71109742
-0.79899973 1.0719144 0.55445254
-0.79039609 1.0599941 0.40962341
-0.78733659 1.0558953 0.27591884
-0.77350569 1.0369774 0.14586191
-0.018039795 0.043841355 3.9141245
-0.37788761 0.52829802 4.1296439
-0.51173633 0.70864022 4.2258415
-0.83640337 1.1467464 4.5847068
-1.1002136 1.5008686 4.4436555
-1.0003524 1.3606755 3.1622362
-0.936813 1.2714783 2.3921895
-0.8991586 1.2190479 1.890222
-0.13055624 0.20158055 3.9927554
-0.25258589 0.36105418 4.0665016
-0.64396369 0.88962507 4.2658539
-0.94984508 1.3033042 4.4397717
-1.0538104 1.4402153 3.753757
-0.96359122 1.3135655 2.7348833
-0.92033619 1.2527815 2.1331723
-0.88465911 1.2024744 1.6966418
-0.87449074 1.1812971 1.5241249
-0.84770483 1.1438755 1.2303913
-0.83303416 1.1236768 1.0016953
-0.81114119 1.0933591 0.79918516
-0.80446517 1.0839731 0.63370347
-0.79800051 1.0748787 0.48343906
-0.79096586 1.064635 0.34327957
-0.77501792 1.0431733 0.20961639
-0.86020964 1.1654123 1.3712621
-0.83727527 1.1335236 1.1096603
-0.82084876 1.1108868 0.89728767
-0.80497515 1.0882238 0.7131955
-0.80087095 1.0822887 0.55773956
-0.78958303 1.0666534 0.41079572
-0.7865923 1.0626174 0.27660954
-0.77285439 1.0436862 0.14606345
-0.01788665 0.043904059 3.9141245
-0.37604123 0.52961385 4.1296439
-0.50866652 0.70959443 4.2209463
-0.83152008 1.1484499 4.5799346
-1.0995657 1.5110188 4.4620657
-1.0026557 1.3738323 3.1841817
-0.93735248 1.2815547 2.4045882
-0.8986848 1.2273515 1.897897
-0.12985179 0.20203505 3.9927554
-0.64158773 0.89288849 4.2706933
-0.94630122 1.3080099 4.4444642
-1.0564522 1.4544533 3.7807641
-0.96514088 1.3253543 2.7519469
-0.9212839 1.2632905 2.1451426
-0.88245565 1.2082928 1.7003169
-0.87458545 1.1900901 1.5311339
-0.84831971 1.1530982 1.2366682
-0.83158517 1.1299456 1.0044367
-0.80994654 1.0997506 0.80150396
-0.80342615 1.0905069 0.63557649
-0.79993564 1.085381 0.4862591
-0.78724486 1.0673896 0.34327957
-0.77728367 1.0538878 0.21051055
-0.86054993 1.1744318 1.377913
-0.83570355 1.1396991 1.1126035
-0.82206523 1.1206973 0.902354
-0.8038578 1.0946852 0.71529353
-0.79988372 1.0888835 0.55938309
-0.78873318 1.0733198 0.41196805
-0.78581071 1.0693471 0.27730021
-0.77216554 1.0504029 0.14626497
-0.017733285 0.043966226 3.9141245
-0.37419021 0.53092331 4.1296439
-0.50559646 0.710536 4.2160516
-0.82924831 1.1537699 4.589479
-1.1000042 1.5227665 4.4850783
-1.0034741 1.3850821 3.2017381
-0.93617982 1.2893732 2.4128542
-0.90004843 1.2382594 1.9094095
-0.12914577 0.2024871 3.9927554
-0.63846707 0.89512265 4.2706933
-0.94273621 1.3127068 4.4491572
-1.0590074 1.4687275 3.8077717
-0.96814764 1.3392836 2.7732766
-0.92040235 1.2713805 2.1531224
-0.88221222 1.2168553 1.7076672
-0.87462938 1.1988978 1.538143
-0.84658498 1.1591958 1.2398067
-0.83256906 1.1395942 1.0099196
-0.81133157 1.1097233 0.80614156
-0.8050881 1.1007887 0.63932252
-0.79897451 1.0920382 0.48766914
-0.78641605 1.0740947 0.34421217
-0.77654207 1.0606128 0.21095763
-0.86083764 1.1834675 1.384564
-0.83647758 1.1491452 1.1184899
-0.8206858 1.1270449 0.9048872
-0.80270523 1.1011522 0.71739161
-0.79886025 1.0954845 0.56102657
-0.78784639 1.0799934 0.41314036
-0.78499168 1.0760844 0.27799088
-0.77143925 1.0571275 0.14646651
-0.017579708 0.044027861 3.9141245
-0.37233466 0.5322262 4.1296439
-0.50252593 0.7114647 4.2111559
-0.82001489 1.1493659 4.5608468
-1.1003739 1.5345356 4.508091
-1.0042262 1.3963543 3.2192943
-0.93660927 1.2994821 2.4252532
-0.89947134 1.2465923 1.9170846
-0.12859154 0.20318124 3.9977469
-0.63679087 0.89939779 4.2803721
-0.93814826 1.3159896 4.4491572
-1.0602089 1.4812666 3.8302777
-0.96954834 1.3511308 2.7903402
-0.92123383 1.2819266 2.1650927
-0.88191968 1.2254308 1.7150176
-0.87462246 1.2077204 1.5451521
-0.84710258 1.1684464 1.2460835
-0.83104092 1.1458786 1.0126611
-0.8100549 1.1161339 0.80846035
-0.80396432 1.1073437 0.6411956
-0.79797667 1.0987018 0.48907918
-0.78555006 1.0808069 0.34514484
-0.77576298 1.0673454 0.21140471
-0.86107266 1.1925195 1.391215
-0.83719563 1.1586107 1.1243762
-0.82179731 1.1368902 0.90995359
-0.80417788 1.1113011 0.72158772
-0.79780036 1.1020914 0.56267005
-0.78692251 1.0866736 0.41431266
-0.7841351 1.0828288 0.27868158
-0.77067542 1.0638597 0.14666803
-0.017425915 0.044088956 3.9141245
-0.37047458 0.53352267 4.1296439
-0.49945503 0.71238065 4.2062607
-0.81168497 1.1461301 4.5369868
-1.099542 1.544734 4.5265012
-1.0063033 1.4095978 3.2412398
-0.93697947 1.3096095 2.4376521
-0.8988471 1.2549361 1.9247596
-0.12788151 0.20362888 3.9977469
-0.63437015 0.90264362 4.2852116
-0.93454552 1.3206651 4.4538498
-1.0588142 1.4902824 3.8437812
-0.97087812 1.3630042 2.807404
-0.92025304 1.2900407 2.1730726
-0.88157791 1.2340192 1.7223679
-0.87456447 1.2165576 1.5521612
-0.84756589 1.1777148 1.2523605
-0.82947898 1.1521659 1.0154026
-0.81133258 1.126143 0.81309795
-0.80551505 1.1176653 0.64494163
-0.796942 1.1053718 0.49048921
-0.78464669 1.087526 0.34607744
-0.77494627 1.0740854 0.21185179
-0.85907984 1.1985527 1.3945405
-0.83785796 1.168095 1.1302625
-0.82033688 1.1432543 0.91248679
-0.8029415 1.1177875 0.72368574
-0.79945964 1.1125392 0.56595707
-0.78596157 1.0933607 0.41548499
-0.78324097 1.0895804 0.27937225
-0.76987386 1.0705996 0.14686957
-0.01727191 0.044149514 3.9141245
-0.36905056 0.53545249 4.134583
-0.49696529 0.71411973 4.2062607
-0.80338782 1.1428502 4.5131273
-1.0975249 1.5533496 4.5403085
-1.0055306 1.4189643 3.2544069
-0.93729019 1.3197553 2.4500508
-0.89817542 1.2632908 1.9324346
-0.12716994 0.20407403 3.9977469
-0.63337243 0.90794557 4.2997298
-0.93092173 1.3253314 4.4585428
-1.0561147 1.4975274 3.8527834
-0.97063124 1.3727735 2.8202019
-0.92096806 1.3006228 2.1850426
-0.8831479 1.2453853 1.7333934
-0.87445551 1.2254089 1.5591702
-0.8479746 1.1870006 1.2586373
-0.82788324 1.1584563 1.018144
-0.80997348 1.1325715 0.81541675
-0.80430627 1.1242408 0.6468147
-0.79587054 1.1120479 0.49189925
-0.78370601 1.0942519 0.34701008
-0.77409196 1.0808326 0.21229887
-0.85921985 1.207629 1.4011915
-0.83611971 1.1743052 1.1332057
-0.81884199 1.1496221 0.91501999
-0.8043046 1.1279742 0.72788185
-0.79831344 1.1191673 0.56760061
-0.78496355 1.1000541 0.4166573
-0.78518569 1.1003699 0.28075361
-0.77193725 1.0814128 0.14727263
-0.017117692 0.044209536 3.9141245
-0.36717927 0.53673744 4.134583
-0.49389103 0.71501213 4.2013655
-0.79341519 1.1370777 4.479723
-1.095461 1.5619698 4.5541158
-1.0060827 1.4303013 3.2719634
-0.93754166 1.3299192 2.4624498
-0.89745635 1.2716559 1.9401096
-0.12660763 0.20476286 4.0027385
-0.63234544 0.91325158 4.3142481
-0.92628968 1.3285729 4.4585428
-1.0546259 1.5065552 3.8662875
-0.97182596 1.3846925 2.8372657
-0.91988778 1.3087603 2.1930227
-0.882698 1.2540051 1.7407438
-0.87429518 1.2342741 1.5661794
-0.84832895 1.1963036 1.2649143
-0.82625371 1.1647497 1.0208856
-0.80857939 1.1390041 0.81773555
-0.80574524 1.134601 0.6505608
-0.79754025 1.1226406 0.4947193
-0.78272784 1.1009846 0.34794268
-0.77319992 1.0875869 0.21274593
-0.85715318 1.2136707 1.4045171
-0.83668125 1.1838183 1.139092
-0.81980127 1.1595134 0.92008632
-0.80560625 1.138184 0.73207796
-0.7971307 1.1258012 0.56924409
-0.78673768 1.1107203 0.41900194
-0.78420222 1.1071451 0.28144431
-0.7710461 1.0881772 0.14747415
-0.016963268 0.044269022 3.9141245
-0.36530346 0.5380159 4.134583
-0.49081665 0.7158919 4.1964703
-0.78859144 1.138613 4.4749508
-1.0922344 1.5689912 4.5633211
-1.0051968 1.4396961 3.2851305
-0.93773329 1.3401005 2.4748485
-0.89668989 1.2800313 1.9477845
-0.1258921 0.20520358 4.0027385
-0.63128906 0.91856134 4.3287663
-0.92262828 1.3332171 4.4632354
-1.0530868 1.5155908 3.879791
-0.97294939 1.3966365 2.8543293
-0.92048573 1.3193773 2.2049928
-0.88414001 1.2654158 1.7517692
-0.8740837 1.2431533 1.5731884
-0.84862858 1.2056234 1.2711912
-0.82459021 1.1710457 1.023627
-0.80970174 1.1490619 0.82237315
-0.80445087 1.1411959 0.65243381
-0.79638112 1.129338 0.49612933
-0.78171211 1.1077235 0.34887531
-0.77227014 1.0943481 0.21319301
-0.85719782 1.2227701 1.411168
-0.83486509 1.1900407 1.1420351
-0.81822503 1.1658965 0.92261952
-0.80423743 1.1447027 0.73417598
-0.79591137 1.1324403 0.57088763
-0.78565133 1.1174361 0.42017427
-0.78318089 1.1139268 0.28213498
-0.77011698 1.0949483 0.14767569
-0.016808638 0.044327963 3.9141245
-0.36385718 0.53993231 4.1395221
-0.48831478 0.71760082 4.1964703
-0.78376681 1.1401287 4.4701791
-1.0889719 1.5760089 4.572526
-1.0042574 1.4491017 3.2982976
-0.9378655 1.3502996 2.4872472
-0.89770538 1.2910485 1.9592969
-0.12502596 0.20539454 3.9977469
-0.63091141 0.92491341 4.348124
-0.91796887 1.3364296 4.4632354
-1.0502617 1.5228418 3.8887932
-0.97400105 1.4086051 2.871393
-0.91930544 1.3275369 2.2129729
-0.88551325 1.2768519 1.7627947
-0.8738209 1.252046 1.5801976
-0.84664416 1.2117691 1.2743297
-0.82289284 1.1773442 1.0263685
-0.8082248 1.1555114 0.82469195
-0.80312014 1.1477954 0.65430683
-0.79518497 1.1360412 0.49753937
-0.78065902 1.1144688 0.34980792
-0.77130264 1.1011159 0.21364009
-0.85505688 1.2288198 1.4144936
-0.83532542 1.1995819 1.1479214
-0.81907827 1.17582 0.92768586
-0.80542874 1.1549484 0.73837209
-0.79465526 1.1390845 0.5725311
-0.78730935 1.1281437 0.42251888
-0.78212184 1.1207148 0.28282565
-0.77200997 1.1058228 0.14807875
-0.016653802 0.044386365 3.9141245
-0.36197025 0.54119915 4.1395221
-0.48523721 0.71845704 4.1915751
-0.77978224 1.1428578 4.4701791
-1.0845687 1.5814117 4.5771284
-1.004622 1.4604915 3.3158541
-0.93793762 1.3605158 2.4996462
-0.89683449 1.2994504 1.9669722
-0.12430823 0.20582971 3.9977469
-0.63120168 0.93231487 4.3723211
-0.91329831 1.3396257 4.4632354
-1.0473987 1.5300915 3.8977957
-0.97498089 1.4205978 2.8884568
-0.91978604 1.3381878 2.2249429
-0.88873935 1.2911054 1.7774954
-0.87553722 1.2638834 1.5907112
-0.84684521 1.221114 1.2806066
-0.82354498 1.1870807 1.0318514
-0.80923879 1.1656032 0.82932955
-0.8043977 1.1582073 0.65805292
-0.79395157 1.1427494 0.49894941
-0.78237236 1.1252534 0.35167316
-0.77314001 1.1119792 0.21453427
-0.85500592 1.2379416 1.4211446
-0.83572924 1.2091407 1.1538078
-0.81987202 1.1857636 0.93275219
-0.8039754 1.1614847 0.74047017
-0.79336256 1.1457337 0.57417464
-0.78613436 1.1348807 0.42369121
-0.78384465 1.1315796 0.28420702
-0.77099073 1.1126173 0.14828028
-0.016509384 0.044486545 3.9191241
-0.3600789 0.54245937 4.1395221
-0.48272637 0.72014642 4.1915751
-0.77495128 1.1443366 4.4654074
-1.0801413 1.5868031 4.5817313
-1.0035688 1.4699235 3.3290212
-0.9395389 1.3730713 2.5161779
-0.89772701 1.3105061 1.9784846
-0.12358899 0.20626236 3.9977469
-0.63074696 0.93868613 4.3916788
-0.9086166 1.3428056 4.4632354
-1.0444981 1.5373398 3.9067984
-0.97588885 1.4326146 2.9055204
-0.92020345 1.3488581 2.236913
-0.88996446 1.3025978 1.7885209
-0.87516105 1.2728093 1.5977204
-0.8469913 1.2304751 1.2868835
-0.82176757 1.1933922 1.0345929
-0.81019223 1.1757162 0.83396715
-0.80298096 1.164825 0.65992594
-0.79268116 1.1494631 0.50035942
-0.78122985 1.1320206 0.35260579
-0.77491093 1.1228688 0.21542843
-0.85490155 1.2470779 1.4277955
-0.83607656 1.2187167 1.1596941
-0.81816715 1.1921725 0.93528539
-0.80505621 1.1717656 0.74466628
-0.79203302 1.1523877 0.57581812
-0.78492182 1.141623 0.42486352
-0.78269553 1.1383895 0.28489769
-0.76993352 1.1194181 0.14848182
-0.016353996 0.044543903 3.9191241
-0.35818315 0.54371297 4.1395221
-0.48020962 0.72182709 4.1915751
-0.77011943 1.1457958 4.4606352
-1.0756893 1.5921828 4.5863338
-1.0038054 1.4813486 3.3465776
-0.93948293 1.3833264 2.5285769
-0.89675111 1.3189331 1.9861596
-0.12286825 0.20669252 3.9977469
-0.63164991 0.94715738 4.4207153
-0.90488583 1.3474019 4.4679279
-1.0512955 1.5590261 3.9518104
-0.97672486 1.4446547 2.9225843
-0.92055756 1.3595475 2.2488832
-0.89111984 1.314114 1.7995464
-0.87473309 1.2817478 1.6047294
-0.84708232 1.2398518 1.2931604
-0.82231569 1.2031579 1.0400758
-0.81108493 1.18585 0.83860481
-0.80152792 1.1714469 0.66179895
-0.79137343 1.1561817 0.50176948
-0.78282559 1.1428461 0.35447103
-0.77380091 1.1296754 0.21587551
-0.8547439 1.2562286 1.4344465
-0.83636701 1.2283099 1.1655804
-0.81885415 1.2021469 0.94035172
-0.80351794 1.1783184 0.7467643
-0.79332787 1.1629475 0.5791052
-0.78641158 1.1523857 0.42720816
-0.78150833 1.1452051 0.28558838
-0.76883811 1.126225 0.14868335
-0.016208738 0.044643112 3.924124
-0.35628307 0.54495996 4.1395221
-0.47768706 0.72349894 4.1915751
-0.76528698 1.147235 4.455863
-1.0712129 1.5975504 4.5909362
-1.0039743 1.4927931 3.3641338
-0.93936694 1.3935981 2.5409758
-0.89752024 1.3300263 1.9976722
-0.12214601 0.20712015 3.9977469
-0.62972707 0.95145309 4.4303942
-0.900177 1.3505523 4.4679279
-1.054322 1.5753508 3.9833186
-0.97603542 1.4545527 2.9353821
-0.92084801 1.3702556 2.2608531
-0.89031297 1.3228418 1.8068967
-0.87625325 1.2936515 1.615243
-0.84711814 1.2492443 1.2994373
-0.82045817 1.2094815 1.0428174
-0.81191659 1.1960042 0.84324241
-0.80003828 1.1780727 0.66367197
-0.79272413 1.166873 0.5045895
-0.78159326 1.149634 0.35540363
-0.77545261 1.1406062 0.21676967
-0.85662222 1.2684876 1.4444231
-0.83660066 1.2379198 1.1714667
-0.81948155 1.2121404 0.94541812
-0.80448759 1.1886331 0.75096041
-0.79191095 1.1696198 0.58074868
-0.78511 1.1591482 0.42838046
-0.78028309 1.1520262 0.28627905
-0.76770455 1.1330378 0.14888488
-0.016052805 0.044699419 3.924124
-0.35437864 0.54620028 4.1395221
-0.47515869 0.72516197 4.1915751
-0.76045388 1.1486548 4.4510913
-1.0667121 1.6029065 4.5955386
-1.002746 1.5022647 3.3773012
-0.94075507 1.4062243 2.5575075
-0.89822263 1.3411406 2.0091846
-0.12127754 0.20729546 3.9927554
-0.62640208 0.95364541 4.4303942
-0.89640915 1.3551255 4.472621
-1.0584518 1.5935291 4.0193286
-0.97673422 1.4666337 2.9524457
-0.91940314 1.3784753 2.2688332
-0.89133888 1.3343989 1.8179222
-0.87571156 1.3026218 1.6222522
-0.84709871 1.258652 1.3057142
-0.82090169 1.2192752 1.0483003
-0.81021196 1.2025048 0.84556121
-0.80110329 1.1885468 0.66741806
-0.79132789 1.1736104 0.50599957
-0.78032321 1.1564273 0.35633627
-0.77703744 1.1515623 0.21766382
-0.85634655 1.2776732 1.451074
-0.83677745 1.2475463 1.177353
-0.81764722 1.2185733 0.94795126
-0.80286425 1.1952014 0.75305843
-0.79309088 1.180216 0.58403569
-0.78648245 1.1699495 0.4307251
-0.77901977 1.1588527 0.28696972
-0.76653272 1.1398565 0.14908642
-0.015896678 0.044755183 3.924124
-0.35246989 0.54743397 4.1395221
-0.47262448 0.72681618 4.1915751
-0.75480062 1.148807 4.4415474
-1.0611105 1.6066202 4.5955386
-1.0027864 1.5137426 3.3948576
-0.94050997 1.4165329 2.5699062
-0.89708418 1.3496066 2.0168595
-0.12055321 0.20771754 3.9927554
-0.62238312 0.95477301 4.4255548
-0.89262033 1.359689 4.477314
-1.0612692 1.6099374 4.050837
-0.9759227 1.4765618 2.9652438
-0.91957515 1.3892145 2.2808034
-0.88854861 1.3403277 1.8215973
-0.87709683 1.3145704 1.6327658
-0.84702373 1.2680748 1.3119911
-0.8212868 1.2290868 1.0537832
-0.81093425 1.2126904 0.85019881
-0.79952723 1.1951891 0.66929108
-0.78989434 1.1803523 0.50740957
-0.77901512 1.1632255 0.35726887
-0.77578402 1.1584054 0.21811089
-0.85601705 1.2868724 1.457725
-0.83689702 1.257189 1.1832393
-0.81816721 1.2285961 0.95301759
-0.80372238 1.2055494 0.75725454
-0.7915864 1.1869057 0.58567923
-0.78509128 1.176731 0.43189743
-0.77496988 1.1615649 0.28696972
-0.76532263 1.1466807 0.14928794
-0.015740355 0.044810399 3.924124
-0.35055682 0.54866099 4.1395221
-0.47008455 0.7284615 4.1915751
-0.74915564 1.1489339 4.4320035
-1.0565667 1.6119485 4.6001415
-1.001443 1.5232376 3.4080248
-0.94020438 1.4268566 2.5823052
-0.8976624 1.3607566 2.0283723
-0.1198274 0.20813708 3.9927554
-0.61904657 0.9569397 4.4255548
-0.88881052 1.3642424 4.4820061
-1.0687515 1.6336718 4.1003504
-0.976484 1.4886826 2.9823074
-0.91802907 1.397453 2.2887833
-0.88759112 1.3490857 1.8289475
-0.87644053 1.3235711 1.6397748
-0.84689337 1.2775122 1.3182681
-0.81930244 1.235431 1.0565246
-0.80914575 1.2192047 0.8525176
-0.79791445 1.201835 0.6711641
-0.7884233 1.1870984 0.50881964
-0.78038824 1.1741198 0.35913411
-0.77449232 1.1652539 0.21855797
-0.85769087 1.2992008 1.4677017
-0.83473152 1.2634752 1.1861825
-0.81625044 1.2350409 0.95555079
-0.80201364 1.2121326 0.75935262
-0.79265118 1.1975372 0.58896625
-0.78366244 1.1835171 0.43306974
-0.77364451 1.1683919 0.28766042
-0.76407415 1.1535102 0.14948948
-0.015583842 0.044865072 3.924124
-0.34863952 0.54988134 4.1395221
-0.46753886 0.73009795 4.1915751
-0.74432969 1.1502886 4.4272313
-1.0519989 1.6172645 4.604744
-1.0013543 1.5347475 3.425581
-0.93983805 1.4371954 2.5947039
-0.89641809 1.3692452 2.0360472
-0.11910014 0.20855409 3.9927554
-0.61570245 0.95909476 4.4255548
-0.88497996 1.368786 4.4866991
-1.0630424 1.6373924 4.1003504
-0.9769724 1.5008252 2.9993713
-0.918082 1.4082216 2.3007534
-0.88472998 1.3550144 1.8326229
-0.875732 1.3325831 1.6467839
-0.84670728 1.2869639 1.3245449
-0.81958246 1.2452691 1.0620075
-0.80975813 1.2294205 0.85715514
-0.79881573 1.2123553 0.67491019
-0.78955477 1.1978539 0.51163971
-0.77628499 1.1768367 0.35913411
-0.77316219 1.1721072 0.21900505
-0.85724282 1.3084332 1.4743526
-0.83474857 1.273142 1.1920689
-0.81666279 1.2450919 0.96061713
-0.80275977 1.2225121 0.76354873
-0.79105884 1.2042437 0.59060973
-0.78219575 1.1903075 0.43424204
-0.77228087 1.1752239 0.28835109
-0.7627874 1.1603451 0.149691
-0.015427139 0.044919197 3.924124
-0.34671792 0.55109495 4.1395221
-0.46553338 0.73258507 4.1964703
-0.73869705 1.1503674 4.4176869
-1.0463471 1.6209269 4.604744
-1.0011973 1.5462751 3.4431372
-0.93941104 1.4475491 2.6071029
-0.89687151 1.3804293 2.0475595
-0.11837143 0.20896856 3.9927554
-0.61235076 0.96123809 4.4255548
-0.88112837 1.3733193 4.4913921
-1.0643941 1.6520737 4.127358
-0.97597283 1.5107985 3.0121689
-0.91807097 1.4190078 2.3127234
-0.88368148 1.3637848 1.8399732
-0.87497127 1.3416063 1.653793
-0.8443377 1.2931708 1.3276834
-0.81980371 1.2551241 1.0674905
-0.81030899 1.2396556 0.86179274
-0.79711604 1.2190164 0.6767832
-0.78799462 1.2046171 0.51304972
-0.77486277 1.1836492 0.36006674
-0.77179366 1.1789656 0.21945213
-0.85674077 1.3176783 1.4810036
-0.83250368 1.2794359 1.1950121
-0.81466329 1.2515479 0.96315032
-0.80096537 1.2291093 0.76564676
-0.79200792 1.2149092 0.59389675
-0.78069115 1.197102 0.43541437
-0.77087891 1.1820605 0.28904179
-0.76146209 1.1671848 0.14989254
-0.015260811 0.044930171 3.9191241
-0.34520334 0.55296111 4.1444616
-0.46297339 0.7342056 4.1964703
-0.733073 1.1504211 4.4081435
-1.0417362 1.6262144 4.6093459
-1.0022666 1.5598354 3.4650826
-0.94044667 1.460283 2.6236346
-0.89725775 1.3916333 2.0590723
-0.11764127 0.20938048 3.9927554
-0.60832024 0.96230716 4.4207153
-0.87725592 1.3778424 4.4960847
-1.0551031 1.6502763 4.1138539
-0.97632289 1.5229788 3.0292325
-0.91799575 1.4298108 2.3246934
-0.88074905 1.3697126 1.8436482
-0.87609571 1.3536341 1.6643068
-0.84405148 1.3026434 1.3339603
-0.82224053 1.2685046 1.0757148
-0.81079823 1.2499094 0.86643034
-0.79790306 1.2295691 0.6805293
-0.78639686 1.2113839 0.51445979
-0.77607864 1.1945853 0.36193198
-0.77038664 1.1858284 0.21989921
-0.85820872 1.330073 1.49098
-0.83241773 1.2891254 1.2008984
-0.81496751 1.2616261 0.96821666
-0.80159926 1.23952 0.76984292
-0.79032725 1.2216313 0.59554029
-0.78178954 1.207981 0.43775901
-0.76943856 1.1889014 0.28973246
-0.76281345 1.178223 0.1502956
-0.015103883 0.044983167 3.9191241
-0.34327102 0.55416274 4.1444616
-0.46040767 0.73581719 4.1964703
-0.72825515 1.1517113 4.4033713
-1.0360533 1.6298409 4.6093459
-1.0019659 1.5714023 3.4826391
-0.94140476 1.4730418 2.6401665
-0.89757669 1.4028568 2.0705848
-0.11704915 0.21004263 3.9977469
-0.60495746 0.96442473 4.4207153
-0.87336254 1.3823551 4.5007772
-1.0481701 1.6521113 4.1093531
-0.97659987 1.5351797 3.0462966
-0.91947526 1.443172 2.3406537
-0.88143313 1.3813525 1.8546739
-0.87521964 1.3626854 1.6713158
-0.84370947 1.3121297 1.3402373
-0.82233161 1.2784004 1.0811977
-0.80882806 1.2564569 0.86874914
-0.79862612 1.2401421 0.68427533
-0.78476143 1.2181544 0.5158698
-0.7745657 1.2014157 0.36286458
-0.76894099 1.192696 0.22034629
-0.85758722 1.3393496 1.497631
-0.83009344 1.2954266 1.2038416
-0.81521136 1.2717217 0.97328311
-0.79971892 1.2461302 0.77194095
-0.79116035 1.23233 0.5988273
-0.78019476 1.2147925 0.43893132
-0.76795989 1.1957468 0.29042313
-0.76139647 1.1850818 0.15049712
-0.014946771 0.045035616 3.9191241
-0.34133455 0.55535764 4.1444616
-0.45783639 0.7374199 4.1964703
-0.72343725 1.1529819 4.3985991
-1.0314001 1.6350999 4.6139488
-1.0041574 1.5870339 3.5089736
-0.94077814 1.4834484 2.6525652
-0.89782804 1.4140992 2.0820973
-0.11631525 0.21044992 3.9977469
-0.60092324 0.96546334 4.4158759
-0.88411254 1.4102522 4.5805545
-1.0458759 1.6612868 4.1228566
-0.97680342 1.5474011 3.0633602
-0.91926247 1.4540138 2.3526237
-0.88023299 1.3901495 1.8620242
-0.87620753 1.3747544 1.6818293
-0.84331137 1.3216294 1.3465142
-0.82461339 1.291837 1.0894222
-0.8092066 1.2667388 0.87338674
-0.79928505 1.2507352 0.68802142
-0.78308833 1.2249279 0.51727986
-0.77566189 1.2123878 0.36472982
-0.77014065 1.2037627 0.22124045
-0.85691142 1.3486378 1.504282
-0.82990402 1.305138 1.2097279
-0.81539452 1.2818341 0.97834945
-0.80023986 1.2565705 0.77613705
-0.79192829 1.2430495 0.60211432
-0.78117418 1.2257063 0.44127598
-0.76910418 1.2067723 0.29180449
-0.76262677 1.1961576 0.15090019
-0.014789475 0.045087516 3.9191241
-0.33979815 0.55720931 4.1494007
-0.45579338 0.7398805 4.2013655
-0.71861941 1.1542329 4.3938274
-1.0267228 1.6403463 4.6185513
-1.0049785 1.6006715 3.5309191
-0.941589 1.4962503 2.6690972
-0.89801192 1.4253606 2.0936098
-0.11571765 0.21110839 4.0027385
-0.5975495 0.96755505 4.4158759
-0.89376694 1.4367756 4.6556387
-1.0400705 1.6649276 4.1228566
-0.9755491 1.5574322 3.0761578
-0.92058635 1.467424 2.3685837
-0.8807857 1.4018254 1.8730495
-0.87712198 1.3868469 1.6923431
-0.84285712 1.3311421 1.3527911
-0.82457393 1.3017725 1.0949051
-0.80952328 1.2770386 0.87802434
-0.79739696 1.2574327 0.68989444
-0.78137749 1.2317047 0.51868987
-0.77669078 1.2233822 0.36659506
-0.76860315 1.2106478 0.22168753
-0.85618114 1.3579378 1.510933
-0.82965696 1.3148639 1.2156142
-0.81551713 1.2919635 0.98341578
-0.79827327 1.2631928 0.77823514
-0.79263103 1.2537893 0.60540134
-0.77948898 1.2325338 0.44244829
-0.76753396 1.213635 0.29249516
-0.76111782 1.2030343 0.15110172
-0.014632001 0.045138866 3.9191241
-0.33825299 0.559057 4.1543403
-0.45320794 0.741467 4.2013655
-0.71458602 1.1567342 4.3938274
-1.0220213 1.6455799 4.6231542
-1.0057166 1.614334 3.5528643
-0.94232178 1.5090756 2.6856289
-0.89982694 1.4393581 2.1089599
-0.11498003 0.21151103 4.0027385
-0.59416848 0.96963501 4.4158759
-0.89237142 1.445761 4.6744099
-1.0399867 1.6777997 4.1453629
-0.97423655 1.5674734 3.0889559
-0.92023546 1.4783031 2.380554
-0.88126755 1.4135221 1.8840752
-0.87796241 1.3989623 1.7028567
-0.84234679 1.3406677 1.3590679
-0.82447505 1.3117234 1.1003881
-0.80741918 1.2836063 0.88034314
-0.79794085 1.2680559 0.69364047
-0.7821843 1.2425441 0.52150995
-0.77765232 1.2343985 0.3684603
-0.76968139 1.2217505 0.22258168
-0.85737664 1.3704143 1.5209095
-0.82935202 1.3246037 1.2215005
-0.81557876 1.3021089 0.98848218
-0.7986812 1.2736617 0.78243119
-0.79075897 1.2605486 0.60704482
-0.78034914 1.2434814 0.44479293
-0.76855743 1.2246959 0.29387653
-0.76222646 1.2141463 0.15150478
-0.014474346 0.045189667 3.9191241
-0.33669901 0.56090063 4.1592793
-0.45061693 0.74304456 4.2013655
-0.71132386 1.1604942 4.3985991
-1.0183206 1.6524639 4.632359
-1.0063714 1.628021 3.5748098
-0.94297659 1.5219244 2.7021606
-0.89986569 1.4506617 2.1204722
-0.11424103 0.21191108 4.0027385
-0.59012741 0.97062904 4.4110365
-0.88641816 1.4473954 4.6697173
-1.0478081 1.7036719 4.1993771
-0.97286576 1.5775241 3.1017535
-0.92140317 1.4917611 2.3965139
-0.88167846 1.4252392 1.8951007
-0.87684405 1.4080732 1.7098659
-0.84178019 1.350206 1.3653449
-0.82431674 1.3216891 1.105871
-0.80762458 1.2939327 0.88498074
-0.79842025 1.2786983 0.69738662
-0.78038365 1.2493355 0.52291995
-0.77854645 1.2454363 0.37032557
-0.76805168 1.2286525 0.22302876
-0.85652614 1.3797432 1.5275606
-0.83112204 1.3377908 1.23033
-0.81330389 1.3086092 0.99101532
-0.79662812 1.2802955 0.78452927
-0.79134476 1.2713192 0.61033183
-0.77857304 1.2503238 0.44596523
-0.76689535 1.2315749 0.2945672
-0.76062518 1.22104 0.15170631
-0.014316517 0.045239914 3.9191241
-0.33473909 0.56207252 4.1592793
-0.44802052 0.74461293 4.2013655
-0.7072686 1.1629702 4.3985991
-1.0135652 1.6576751 4.6369615
-1.0056908 1.6396905 3.592366
-0.94355303 1.5347959 2.7186925
-0.90151638 1.4647127 2.1358223
-0.11350062 0.21230857 4.0027385
-0.23513 0.40443888 4.3200483
-0.58673567 0.97268301 4.4110365
-0.88494432 1.45638 4.6884885
-1.058863 1.7351941 4.2668953
-0.97007561 1.5853598 3.1102853
-0.92091358 1.5026759 2.408484
-0.88201809 1.4369761 1.906126
-0.87754709 1.4202269 1.7203795
-0.8411572 1.3597566 1.3716217
-0.82409883 1.3316699 1.1113539
-0.80776763 1.3042761 0.88961834
-0.79883504 1.2893593 0.70113266
-0.77854502 1.2561294 0.52433002
-0.77937287 1.2564951 0.3721908
-0.76638323 1.235558 0.22347584
-0.85757905 1.392262 1.537537
-0.83068925 1.3475655 1.2362163
-0.81325638 1.3187788 0.99608171
-0.7969225 1.290792 0.78872538
-0.78938371 1.2780914 0.61197537
-0.77931356 1.2613039 0.44830987
-0.76779753 1.2426701 0.29594857
-0.75898498 1.2279373 0.15190785
-0.014158513 0.045289613 3.9191241
-0.33317 0.56390667 4.1642184
-0.4454186 0.74617225 4.2013655
-0.70320481 1.1654319 4.3985991
-1.0097991 1.6645439 4.6461663
-1.0061858 1.6534208 3.6143112
-0.94405097 1.5476898 2.7352242
-0.90140945 1.4760574 2.1473348
-0.11275883 0.21270347 4.0027385
-0.23052622 0.39971304 4.2603903
-0.58333677 0.97472519 4.4110365
-0.88341862 1.465372 4.7072592
-1.0527997 1.7388797 4.2668953
-0.97130263 1.5998834 3.1316152
-0.92035902 1.5136056 2.4204543
-0.88228667 1.4487329 1.9171517
-0.8763119 1.4293622 1.7273885
-0.84047771 1.3693191 1.3778987
-0.82382131 1.3416653 1.1168369
-0.80552918 1.3108619 0.89193714
-0.79675728 1.2960893 0.70300567
-0.7791813 1.2670118 0.52715003
-0.78013152 1.2675749 0.37405604
-0.76467586 1.2424668 0.22392292
-0.85660797 1.4016191 1.5441881
-0.83230704 1.3608016 1.2450458
-0.81314772 1.3289638 1.001148
-0.79715341 1.3013062 0.79292148
-0.78985214 1.2888917 0.61526239
-0.77744645 1.2681605 0.4494822
-0.76604325 1.2495643 0.29663923
-0.75730586 1.234838 0.15210937
-0.014008581 0.045381609 3.924124
-0.33119956 0.56506628 4.1642184
-0.44281122 0.74772251 4.2013655
-0.69989896 1.1691602 4.4033713
-1.00499 1.6697325 4.6507688
-1.0053594 1.6651243 3.6318676
-0.94447047 1.5606058 2.751756
-0.90289503 1.4901603 2.1626849
-0.11201567 0.21309577 4.0027385
-0.22754394 0.39773765 4.2305613
-0.58057237 0.97783637 4.4158759
-0.88361228 1.4773331 4.7354155
-1.0512068 1.7500088 4.2849002
-0.97243989 1.6144347 3.1529448
-0.91973925 1.5245492 2.4324241
-0.88248366 1.4605087 1.928177
-0.87687713 1.4415532 1.7379023
-0.84176624 1.3822179 1.3873141
-0.82348377 1.3516747 1.1223198
-0.80556053 1.3212304 0.8965748
-0.79705608 1.3067782 0.70675176
-0.77975106 1.2779138 0.52997011
-0.7782622 1.2744827 0.37498868
-0.76552486 1.2536288 0.22481708
-0.85751772 1.4141787 1.5541645
-0.83174562 1.3706098 1.250932
-0.81297779 1.339164 1.0062144
-0.79732054 1.3118378 0.79711759
-0.79025477 1.2997108 0.61854941
-0.77806687 1.2791721 0.45182684
-0.76425028 1.2564616 0.29732993
-0.75818479 1.2460097 0.15251243
-0.013850085 0.045430232 3.924124
-0.32922509 0.56621885 4.1642184
-0.44071406 0.75014174 4.2062607
-0.69581354 1.1715963 4.4033713
-1.000157 1.6749078 4.6553717
-1.0044634 1.676842 3.6494238
-0.94481105 1.5735435 2.7682879
-0.90264177 1.5015445 2.1741974
-0.11127115 0.21348548 4.0027385
-0.229306 0.40409577 4.2902193
-0.5777933 0.98094016 4.4207153
-0.87845004 1.4804084 4.7354155
-1.0506637 1.763018 4.3074059
-0.97482508 1.6312521 3.1785405
-0.91905427 1.5355072 2.4443944
-0.88260925 1.4723035 1.9392027
-0.875525 1.4507118 1.7449113
-0.84096193 1.3918107 1.393591
-0.82308656 1.3616979 1.1278027
-0.80552924 1.331615 0.90121239
-0.79488993 1.3135188 0.70862478
-0.77776986 1.2847316 0.53138018
-0.77889949 1.2855942 0.37685391
-0.76372474 1.2605526 0.22526415
-0.85642552 1.4235623 1.5608156
-0.83112592 1.3804303 1.2568183
-0.81274641 1.3493792 1.0112808
-0.79742366 1.3223859 0.80131364
-0.78815222 1.3065047 0.62019289
-0.77610838 1.2860419 0.45299914
-0.76241845 1.2633616 0.29802063
-0.75641292 1.2529256 0.15271397
-0.013691418 0.045478299 3.924124
-0.32724661 0.56736463 4.1642184
-0.43809292 0.75167555 4.2062607
-0.69247729 1.1753042 4.4081435
-0.99530005 1.6800698 4.6599741
-1.003498 1.6885737 3.6669803
-0.94507283 1.5865024 2.7848196
-0.90232003 1.5129447 2.1857097
-0.11052527 0.21387258 4.0027385
-0.22711097 0.40349945 4.2753048
-0.57563365 0.98512185 4.4303942
-0.87240189 1.4819787 4.7307234
-1.0489345 1.7741706 4.3254108
-0.97710478 1.6481055 3.2041361
-0.9198423 1.5490698 2.4603543
-0.88266301 1.4841168 1.950228
-0.87411958 1.4598788 1.7519203
-0.84210205 1.4047531 1.4030064
-0.82262921 1.3717349 1.1332856
-0.80543512 1.3420151 0.90584999
-0.79507256 1.3242346 0.71237087
-0.77822042 1.2956632 0.53420019
-0.77693784 1.2925155 0.37778652
-0.76445121 1.2717474 0.22615832
-0.85527819 1.4329555 1.5674665
-0.83044773 1.3902636 1.2627047
-0.81245357 1.3596089 1.0163471
-0.79746288 1.3329509 0.80550975
-0.78601199 1.3132999 0.62183642
-0.77411133 1.2929134 0.45417145
-0.76309144 1.2745129 0.29940197
-0.75460184 1.2598443 0.15291549
-0.013532585 0.045525815 3.924124
-0.32487857 0.56782889 4.1592793
-0.43597582 0.75408179 4.2111559
-0.68837047 1.1777142 4.4081435
-0.98942935 1.6835338 4.6599741
-1.0024627 1.7003189 3.6845365
-0.94525564 1.5994823 2.8013513
-0.90356165 1.5271195 2.2010598
-0.10977804 0.21425711 4.0027385
-0.22621991 0.4052211 4.2852473
-0.57345182 0.98930031 4.440073
-0.86635321 1.4835246 4.7260303
-1.0471401 1.7853328 4.3434157
-0.9779563 1.6627465 3.2254655
-0.91901755 1.5600603 2.4723246
-0.88264519 1.4959486 1.9612535
-0.87266093 1.4690534 1.7589295
-0.84117246 1.4143748 1.4092834
-0.82211185 1.381785 1.1387686
-0.80527824 1.3524309 0.91048759
-0.79281765 1.3309848 0.71424389
-0.77860415 1.3066137 0.53702027
-0.77745348 1.3036577 0.37965176
-0.7651087 1.2829623 0.22705248
-0.85407567 1.4423578 1.5741175
-0.83177149 1.4035858 1.2715342
-0.81209928 1.3698529 1.0214134
-0.79512161 1.3396294 0.80760783
-0.78624463 1.3241564 0.62512344
-0.77207583 1.2997866 0.45534378
-0.76116693 1.2814263 0.30009267
-0.75275171 1.2667656 0.15311703
-0.013373588 0.045572773 3.924124
-0.32289451 0.56895947 4.1592793
-0.43334094 0.75559902 4.2111559
-0.6842553 1.1801099 4.4081435
-0.98256284 1.6852894 4.6553717
-1.0013577 1.7120776 3.7020931
-0.94393599 1.610055 2.8137503
-0.90309292 1.5385572 2.2125723
-0.10902948 0.21463898 4.0027385
-0.22480404 0.4060083 4.2852473
-0.57062137 0.99238575 4.4449124
-0.86030459 1.4850464 4.7213373
-1.044186 1.7946221 4.3569193
-0.97740334 1.6751609 3.2425294
-0.91964734 1.5736651 2.4882846
-0.88255537 1.5077978 1.972279
-0.87114877 1.4782355 1.7659385
-0.84216368 1.4273595 1.4186987
-0.82153428 1.3918483 1.1442515
-0.80505842 1.3628619 0.91512519
-0.79288387 1.3417264 0.71798992
-0.77647972 1.313453 0.53843033
-0.77539939 1.3105912 0.38058439
-0.76316142 1.2899113 0.22749956
-0.85470909 1.4549887 1.584094
-0.83096385 1.4134496 1.2774205
-0.8116833 1.3801111 1.0264798
-0.79504621 1.3502187 0.81180394
-0.78401434 1.3309616 0.62676698
-0.77000171 1.3066614 0.45651609
-0.7617175 1.2926083 0.30147403
-0.75339961 1.2779931 0.15352009
-0.013206934 0.045576196 3.9191241
-0.32128733 0.57076037 4.1642184
-0.43120402 0.75799227 4.2160516
-0.68013179 1.1824912 4.4081435
-0.97765213 1.6904002 4.6599741
-1.0013844 1.7259204 3.7240384
-0.94396883 1.6230705 2.830282
-0.90255505 1.5500098 2.2240849
-0.10827958 0.21501827 4.0027385
-0.2231293 0.40632308 4.2802763
-0.56839907 0.99655545 4.4545918
