# .PCD v0.7 - Point Cloud Data file format
VERSION 0.7
FIELDS x y z
SIZE 4 4 4
TYPE F F F
COUNT 1 1 1
WIDTH 1516
HEIGHT 1
VIEWPOINT 0 0 0 1 0 0 0
POINTS 1516
DATA ascii
4.5028586 0.67216694 1.428161
4.1301079 0.60476846 3.798877
4.2696729 0.62671798 3.2257926
8.9326725 1.3127208 5.3911471
4.9041238 0.72332227 2.3790491
5.05513 0.74649292 1.8676163
0.0863453 -0.013381709 8.5089493
1.3434116 0.17119914 8.6095505
1.7710184 0.23401119 8.6119652
1.8986851 0.26023567 6.1737776
3.5013113 0.48844826 8.3880186
4.4375467 0.62532252 8.2799025
4.7063489 0.66820472 7.0541558
3.6161382 0.51535422 4.4498372
0.5018965 0.039538175 8.5451479
0.91949469 0.10714673 8.5905704
2.2174263 0.29565319 8.6503725
2.2355907 0.30557033 6.1901736
3.9736044 0.55077291 8.3584986
5.3276 0.74502897 8.869297
4.9649186 0.69783682 6.7137203
3.9454308 0.55735308 4.3978877
5.8174038 0.83938473 5.8557444
4.1286459 0.59792638 3.4461415
8.0508776 1.167354 5.4181972
4.5194178 0.65851986 1.432391
4.1284981 0.58982003 3.7955518
4.259831 0.61009121 3.2169633
5.4424 0.78041315 3.3164735
4.6550541 0.6699931 2.2615583
5.0857477 0.73288375 1.8774773
0.086298063 -0.013683029 8.5089493
1.3440009 0.1665087 8.6095505
1.7718244 0.22782776 8.6119652
2.3123884 0.30868661 7.5051608
3.4913795 0.47464472 8.3604031
4.4397025 0.60982877 8.2799025
4.7058649 0.65138662 7.0500226
3.6115656 0.50184625 4.4421625
0.50203145 0.037785985 8.5451479
0.9198631 0.10393643 8.5905704
2.2184448 0.28791115 8.6503725
2.2383542 0.29799241 6.1948662
3.9755027 0.53689909 8.3584986
5.3301682 0.72642756 8.869297
4.9255285 0.67477649 6.6578593
3.9574277 0.54496491 4.4089131
4.107584 0.58024472 3.4273109
8.7380409 1.2358609 5.8705392
5.1812148 0.73465252 2.8258162
4.5216889 0.64274013 1.432391
4.1194372 0.57385987 3.7855749
4.2979627 0.60024935 3.2434516
5.5176678 0.77155924 3.3595374
4.5764637 0.64238441 2.2237933
5.0181322 0.7052688 1.8528247
0.086207189 -0.013974657 8.5039492
1.344574 0.16181627 8.6095505
1.7726089 0.22164154 8.6119652
2.4274328 0.31541654 7.8726034
3.4891417 0.46194199 8.3511992
4.4465518 0.59496272 8.288681
4.6997437 0.63382792 7.0376239
3.6069429 0.48837644 4.4344873
0.50216031 0.03603334 8.5451479
0.92022032 0.10072488 8.5905704
2.2194364 0.28016558 8.6503725
2.2410922 0.29039893 6.1995587
3.979511 0.5233025 8.3629999
5.3326716 0.70781744 8.869297
4.9248681 0.65718061 6.6538701
3.9156249 0.52528828 4.361136
4.4981828 0.6170215 4.5415392
4.0671692 0.56006277 3.3927879
5.2320161 0.72323436 2.8513229
4.5048981 0.62431854 1.426751
4.1362147 0.56148571 3.798877
4.3360777 0.59014863 3.2699401
5.5587697 0.75753284 3.3823361
4.5516987 0.6227147 2.211205
4.9363508 0.67621219 1.8232415
0.086157888 -0.014275491 8.5039492
1.3451306 0.15712184 8.6095505
1.7733718 0.21545263 8.6119652
2.4892373 0.31461185 8.0682545
3.48492 0.449011 8.3373909
4.462851 0.58129352 8.3150148
4.6851869 0.6152209 7.0128264
3.6022704 0.47494507 4.4268126
0.50228304 0.034280252 8.5451479
0.92056626 0.097512104 8.5905704
2.2216485 0.2725696 8.6552124
2.2438045 0.28279001 6.2042518
3.9834728 0.50968444 8.3675013
5.3376966 0.68953276 8.8735628
4.8793206 0.63377595 6.5900292
5.4267998 0.70872116 6.0112853
4.5073786 0.60226077 4.5485482
4.053668 0.54379231 3.380234
8.9412336 1.2009902 5.9993877
5.1423154 0.69255084 2.8026283
4.5022964 0.60794783 1.4253409
4.1381493 0.54704416 3.798877
4.3661599 0.57872689 3.2905421
8.659544 1.149307 5.2188907
4.5133562 0.60142732 2.1923225
5.1025052 0.68083584 1.8807644
0.08610753 -0.014576152 8.5039492
1.3464429 0.15251279 8.6144905
1.7741131 0.2092611 8.6119652
2.5955126 0.31883687 8.4070663
3.4864659 0.4368436 8.3373909
4.4909887 0.56902272 8.3632956
5.8931646 0.75290924 8.7982597
3.5911894 0.46073657 4.4114623
0.50239962 0.03252675 8.5451479
0.9203707 0.09424407 8.5855989
2.2225866 0.26481292 8.6552124
2.2464907 0.27516565 6.2089443
3.9852278 0.49577644 8.3675013
5.3400707 0.67089647 8.8735628
4.8934612 0.61825079 6.6059895
5.4056983 0.68678296 5.9855585
4.4953074 0.5846836 4.5345302
4.059401 0.53014308 3.3833723
8.9495182 1.1703143 6.0021296
4.749403 0.62276506 2.5939362
4.9190354 0.64587533 2.0927961
4.4948788 0.59097755 1.4225209
4.360136 0.56244838 3.284656
8.4112606 1.0864911 5.0694332
4.5154281 0.5856691 2.1923225
5.231287 0.67944181 1.9251391
0.086056128 -0.014876634 8.5039492
1.3469672 0.14781189 8.6144905
1.7748326 0.203067 8.6119652
2.6455226 0.31560743 8.5645418
3.4879696 0.4246709 8.3373909
4.526226 0.55744064 8.4247417
5.9013419 0.73302734 8.8065262
3.5927758 0.44819817 4.4114623
0.50279826 0.030789921 8.5501404
0.92069411 0.091030806 8.5855989
2.2247458 0.25719726 8.6600504
2.245724 0.26711854 6.2042518
3.9890952 0.48212352 8.3720026
5.3397913 0.65193605 8.869297
4.9195161 0.60410351 6.6379099
3.8435252 0.47469929 4.2766075
4.4902449 0.5680933 4.5275211
4.0457816 0.51400775 3.3708186
8.9452524 1.1380123 5.9966464
5.1909671 0.66223985 2.8258162
4.9212594 0.62870079 2.0927961
4.492156 0.5746752 1.4211109
4.3580618 0.54672217 3.2817128
7.8846321 0.99049842 4.7553191
4.4544048 0.56195116 2.1629498
5.158668 0.65170765 1.8988429
0.086003669 -0.015176935 8.5039492
1.3474749 0.1431092 8.6144905
1.7755307 0.19687045 8.6119652
2.6792297 0.31014538 8.6695251
3.4874909 0.41226375 8.3327885
4.5281444 0.54163778 8.4247417
3.5815907 0.43411183 4.3961124
0.50290269 0.029034639 8.5501404
0.92100626 0.087816432 8.5855989
2.22563 0.2494299 8.6600504
2.2449284 0.25908011 6.1995587
3.9907539 0.46819603 8.3720026
5.3420343 0.63329273 8.869297
4.9245868 0.58728427 6.6419001
3.8720872 0.46451008 4.3060088
4.4780421 0.55067503 4.5135026
4.0630031 0.5017904 3.3833723
9.0238667 1.1160183 6.0459929
5.2547927 0.65174919 2.8582795
4.8498149 0.6023761 2.0628276
4.4893742 0.55839902 1.4197007
4.8515911 0.58972681 4.4340477
4.3037715 0.52465904 3.2405086
7.8923202 0.96349227 4.7578526
5.1655989 0.63427204 1.9004865
0.085950173 -0.015477052 8.5039492
1.3479662 0.13840476 8.6144905
1.7772195 0.19078006 8.6168604
2.6802962 0.3007912 8.6695251
3.4889085 0.40008762 8.3327885
4.5847249 0.5321787 8.525691
4.6877298 0.5490908 7.00456
3.5990002 0.42347965 4.4152999
0.50300097 0.027279004 8.5501404
0.92130721 0.084600985 8.5855989
2.2264872 0.24165946 8.6600504
2.2458191 0.25124225 6.1995587
3.9923639 0.45426285 8.3720026
5.3442125 0.61464167 8.869297
4.9296002 0.57043707 6.6458898
3.856848 0.44903108 4.2876329
3.9913027 0.47879717 3.3237419
8.9114637 1.0705482 5.9692321
5.2570362 0.63340259 2.8582795
4.8795033 0.5887754 2.0740657
4.4912958 0.54272473 1.4197007
4.8462043 0.57191294 4.4273968
4.2694511 0.50535709 3.21402
7.694437 0.91208798 4.638793
4.755661 0.56625521 2.3014212
5.2193599 0.62238723 1.918565
0.08589562 -0.015776979 8.5039492
1.3476679 0.13362214 8.6095505
1.7778747 0.18457524 8.6168604
2.6902335 0.29240066 8.6981564
3.4902837 0.38790664 8.3327885
4.641294 0.52233112 8.6266394
5.8583655 0.6654731 8.7321329
3.6259336 0.41382143 4.4460001
0.50280482 0.025508985 8.5451479
0.92159688 0.081384502 8.5855989
2.2273171 0.23388611 8.6600504
2.2398198 0.24265827 6.1807876
3.9917612 0.44008565 8.3675013
5.3437338 0.59569424 8.8650303
4.9315615 0.55322605 6.6458898
3.8516541 0.43480492 4.280282
4.0084147 0.46666226 3.3362956
8.8694592 1.0341083 5.9390759
5.2504153 0.61401922 2.8536417
6.0188274 0.70493883 2.5367048
4.4931631 0.52704388 1.4197007
4.8184953 0.55159611 4.4007926
4.2270169 0.48537901 3.1816454
6.8539057 0.78820473 4.1397567
5.2824817 0.61122024 1.9399307
0.085882358 -0.016087279 8.5089493
1.3481262 0.12891708 8.6095505
1.7785081 0.17836818 8.6168604
2.697176 0.28363234 8.7172451
3.4916167 0.37572089 8.3327885
4.6430888 0.50612676 8.6266394
5.8746386 0.64655864 8.7527971
3.6496565 0.40362802 4.4728622
0.50289077 0.023753714 8.5451479
0.92187536 0.078167036 8.5855989
2.2281199 0.22610988 8.6600504
2.2475183 0.2355575 6.1995587
3.9932733 0.42614913 8.3675013
5.3457804 0.57703751 8.8650303
3.8430383 0.42025205 4.2692571
3.7570517 0.42213193 3.7950706
4.0680351 0.459216 3.3833723
8.8231554 0.99750513 5.906178
5.2437234 0.59468979 2.8490043
6.2745976 0.71270055 2.6397216
4.4377794 0.50485009 1.4027804
4.8055468 0.53312635 4.3874907
4.268858 0.47509158 3.211077
6.8694682 0.76570803 4.1473565
6.2569261 0.70073998 2.9979746
5.2845831 0.59277719 1.9399307
0.085825682 -0.016386965 8.5089493
1.3485678 0.12421047 8.6095505
1.7791198 0.17215894 8.6168604
2.6981497 0.27421573 8.7172451
3.4948499 0.36373276 8.3373909
4.6900816 0.49468869 8.7100325
4.6820307 0.49877962 6.9880285
3.6733525 0.39327398 4.4997249
0.50297064 0.021998152 8.5451479
0.92267394 0.074991547 8.5905704
2.2301466 0.21845336 8.6648903
3.9925711 0.411984 8.3629999
5.3451681 0.55810297 8.8607645
5.1390824 0.54020208 6.9172115
3.8377392 0.40612134 4.2619066
3.7478666 0.40785754 3.7845571
4.1353903 0.4522053 3.4367261
8.7767048 0.96123779 5.8732805
5.241364 0.57589829 2.8466854
6.0788989 0.66898799 2.5591812
4.3822966 0.48304942 1.3858601
4.777679 0.51315892 4.3608866
4.274509 0.46062058 3.21402
6.859241 0.74033666 4.1397567
6.349575 0.68868232 3.0399356
5.2490635 0.57024705 1.9267826
0.085767955 -0.016686453 8.5089493
1.3489933 0.11950233 8.6095505
1.7797101 0.1659476 8.6168604
2.6990905 0.26479575 8.7172451
3.4824915 0.35016349 8.3051739
4.7036929 0.47952858 8.7319784
4.7089362 0.48502785 7.0252252
3.6970205 0.38275942 4.5265875
0.50304437 0.020242322 8.5451479
0.92293006 0.071770355 8.5905704
2.2308955 0.21066737 8.6648903
3.9939849 0.39804482 8.3629999
5.3470836 0.53944141 8.8607645
5.1409369 0.52226007 6.9172115
3.8323882 0.39203274 4.2545562
3.7563608 0.39551935 3.7915664
4.2220998 0.4467777 3.5057724
8.8881187 0.94205397 5.9445586
5.2389374 0.55713058 2.8443666
4.919517 0.52402669 2.0871768
4.3791862 0.46724051 1.38445
4.6420312 0.4822059 4.237843
4.3846369 0.45700991 3.2934854
6.8317719 0.7132557 4.1220245
6.2706928 0.65798885 3.0021708
5.2228441 0.54895931 1.9169216
0.085709184 -0.016985737 8.5089493
1.3494022 0.11479274 8.6095505
1.7812927 0.15982512 8.6217556
2.6999984 0.25537255 8.7172451
3.4759142 0.33725074 8.2867632
4.7077217 0.46334121 8.7363663
4.7077999 0.4683091 7.0210924
3.6951447 0.36953318 4.5227499
0.5034005 0.018496271 8.5501404
0.92317492 0.068548292 8.5905704
2.2316175 0.2028788 8.6648903
2.430259 0.22899812 6.6922994
3.9953499 0.38410079 8.3629999
5.3463378 0.52052063 8.8564987
5.148726 0.50489974 6.9251914
3.8269858 0.37798649 4.2472062
3.7541704 0.38204375 3.7880619
4.2468662 0.43441337 3.5246029
5.3265285 0.54577744 3.5951221
5.24085 0.53883994 2.8443666
4.9259281 0.50732613 2.0890501
4.3998775 0.45392054 1.3900901
4.4319243 0.44475061 4.0482893
4.3862057 0.44170186 3.2934854
6.8342199 0.68940401 4.1220245
5.8485074 0.59305733 2.8049538
5.2482185 0.53311086 1.9251391
0.085691556 -0.017295968 8.5139494
1.3497947 0.11008175 8.6095505
1.7818397 0.15360628 8.6217556
2.7008731 0.24594623 8.7172451
3.463454 0.32384276 8.2545452
4.7140789 0.4473578 8.7451448
4.6925988 0.45026052 6.996294
3.6996026 0.35694024 4.5265875
0.50346196 0.016738964 8.5501404
0.92340863 0.065325394 8.5905704
2.232312 0.19508778 8.6648903
3.1648962 0.28704119 8.6961107
3.9988339 0.37035277 8.3675013
5.3455257 0.50161165 8.852232
5.1444573 0.48635709 6.9172115
3.8249073 0.3643041 4.2435308
3.7554812 0.36893693 3.7880619
4.2522302 0.41996893 3.5277414
5.3200798 0.52635783 3.5896394
5.3220458 0.52842057 2.8861051
5.0845165 0.50572854 2.1527331
4.3918886 0.43760812 1.3872701
4.3368239 0.4199225 3.9618268
6.7936792 0.66136724 4.0966926
5.7782702 0.56556505 2.771385
5.2970438 0.51939595 1.9415742
0.085630655 -0.017594982 8.5139494
1.3501707 0.10536941 8.6095505
1.7823651 0.14738555 8.6217556
2.7017152 0.23651694 8.7172451
3.4626176 0.31157604 8.2499428
4.7227674 0.4315536 8.7583122
4.6801314 0.4325828 6.9756298
3.7040172 0.34432065 4.5304251
0.50351733 0.014981451 8.5501404
0.92363101 0.062101699 8.5905704
2.2329793 0.18729436 8.6648903
3.1710362 0.27644128 8.7101889
4.0022707 0.35658512 8.3720026
5.3446469 0.48271468 8.8479671
5.1371212 0.46757731 6.9052415
3.8194034 0.35033122 4.2361803
3.7567461 0.35582563 3.7880619
4.2614198 0.40586135 3.5340185
5.3010716 0.50579834 3.575932
5.1739297 0.49548271 2.807266
5.0862503 0.48797718 2.1527331
4.3933892 0.42227492 1.3872701
4.3122392 0.40235367 3.9385481
4.9646707 0.46496296 3.7143576
6.8131142 0.63925964 4.1068254
6.0965014 0.57523447 2.9182487
5.0778675 0.48001599 1.8643292
0.085599817 -0.017744409 8.5139494
1.3503525 0.10301276 8.6095505
1.7816046 0.1441925 8.6168604
2.7036114 0.23192871 8.7220173
3.463156 0.30553219 8.2499428
4.7282839 0.42373765 8.7670908
5.8635478 0.53162891 8.7197342
3.7078047 0.33814645 4.5342627
0.50354272 0.014102626 8.5501404
0.923738 0.060489565 8.5905704
2.2333028 0.18339679 8.6648903
3.1835501 0.271934 8.7430382
4.0050559 0.34978867 8.3765039
5.3428836 0.47315574 8.8437014
5.1289253 0.45780706 6.893271
3.813256 0.34305713 4.2288303
3.7573614 0.34926832 3.7880619
4.2543707 0.39769864 3.5277414
5.260314 0.49264666 3.5485172
5.1791978 0.48686635 2.8095849
5.0132465 0.47214454 2.1227646
4.3893433 0.41415572 1.3858601
4.3017807 0.39380577 3.9285717
5.0540257 0.464434 3.7791069
5.5235591 0.5114516 2.6517959
4.8812146 0.45283279 1.7953018
0.085537359 -0.018043099 8.5139494
1.350704 0.098298527 8.6095505
1.7820971 0.13797265 8.6168604
2.7044046 0.22248992 8.7220173
3.4700418 0.29393616 8.263751
4.7345066 0.40764105 8.7758684
5.8962059 0.51384521 8.7651968
3.7153485 0.32576159 4.5419378
0.50387746 0.012351346 8.555131
0.92394346 0.057264753 8.5905704
2.2339294 0.17559999 8.6648903
3.1793199 0.26039726 8.72896
4.0084219 0.33598804 8.3810053
5.3445024 0.45450273 8.8437014
5.1184831 0.43887144 6.8773112
3.8042974 0.32886848 4.2178044
3.7585576 0.33615056 3.7880619
4.2518563 0.38249698 3.5246029
5.2536726 0.4735311 3.5430343
5.2955713 0.47916314 2.8698733
4.9225245 0.44627112 2.085304
4.3764305 0.39752972 1.3816299
4.2808127 0.37682313 3.9086185
5.075748 0.44856834 3.7938228
5.437994 0.48153073 3.2936749
5.141058 0.45794156 2.4734616
4.9956493 0.44586599 1.8347461
0.085431814 -0.018329903 8.5089493
1.3510388 0.093583092 8.6095505
1.7825677 0.13175113 8.6168604
2.7051644 0.21304843 8.7220173
3.4690993 0.2816636 8.2591476
4.7382874 0.39130914 8.7802572
5.8867459 0.49232244 8.7486639
3.7196567 0.31305939 4.5457749
0.50391746 0.01059241 8.555131
0.92413777 0.054039236 8.5905704
2.2345285 0.16780105 8.6648903
3.1836505 0.24956736 8.7383461
3.9965503 0.32094875 8.3539982
5.3460565 0.43584415 8.8437014
5.1019654 0.41952053 6.8533716
3.8054223 0.31558698 4.2178044
3.7597082 0.32302871 3.7880619
4.2492881 0.36731774 3.5214646
5.2178011 0.45194224 3.5183611
5.1030335 0.44378924 2.7678463
4.961 0.43230507 2.1002882
4.3682332 0.38141617 1.3788098
4.2634993 0.36030614 3.8919911
5.0128422 0.42538011 3.7467322
5.4439363 0.46291083 3.2962079
4.9436569 0.42297047 2.3811471
5.0630436 0.43407217 1.8577552
0.085367315 -0.018628005 8.5089493
1.3513572 0.088866509 8.6095505
1.7830168 0.12552801 8.6168604
2.7058918 0.20360436 8.7220173
3.4700613 0.26955247 8.2591476
4.7420125 0.3749558 8.784646
5.9305048 0.47514147 8.8106594
3.7271166 0.3005887 4.5534501
0.50395137 0.008833346 8.555131
0.92432082 0.050813068 8.5905704
2.2351007 0.16000009 8.6648903
3.1845021 0.23845282 8.7383461
3.984623 0.30599642 8.3269901
5.3475456 0.4171803 8.8437014
5.1033988 0.40170878 6.8533716
3.8233981 0.30364341 4.2361803
3.7608128 0.30990288 3.7880619
4.246665 0.35216108 3.518326
5.2276812 0.43441847 3.523844
5.0295057 0.41971138 2.7284267
5.0502543 0.42232522 2.1358757
4.331296 0.36296129 1.3675296
4.2386799 0.34331173 3.8687124
5.0747271 0.41279462 3.7908795
5.4326296 0.44285446 3.2886086
4.9089165 0.40274259 2.3643627
5.1021786 0.41949162 1.8709033
0.085301764 -0.018925877 8.5089493
1.3516592 0.084148854 8.6095505
1.783444 0.11930335 8.6168604
2.7065859 0.19415778 8.7220173
3.4963088 0.25931582 8.3189802
4.7456803 0.35858119 8.7890358
4.4674959 0.3422541 6.6532598
3.7217515 0.28708383 4.5457749
0.50397915 0.0070741731 8.555131
0.92449254 0.047586273 8.5905704
2.2356458 0.15219714 8.6648903
3.1870368 0.22745819 8.7430382
3.9661264 0.29065409 8.286479
5.348969 0.39851135 8.8437014
5.0506835 0.37982541 6.7815509
3.8548589 0.29260439 4.2692571
3.7618716 0.29677331 3.7880619
4.240108 0.3367191 3.5120492
5.2416706 0.41716295 3.5320685
4.933794 0.3943876 2.677413
5.0655608 0.40580449 2.1414948
4.380353 0.35167891 1.3816299
4.2212396 0.32707196 3.8520854
5.5458837 0.43260413 3.3544712
5.0847807 0.40019712 1.8643292
0.085193269 -0.019211415 8.5039492
1.3527204 0.079475574 8.6144905
1.7838497 0.11307725 8.6168604
2.7072473 0.18470885 8.7220173
3.557606 0.25137672 8.4616594
4.7492919 0.34218556 8.7934246
4.4798899 0.32747799 6.6697917
3.7227311 0.27409077 4.5457749
0.50400078 0.005314914 8.555131
0.92465299 0.044358905 8.5905704
2.2361634 0.14439236 8.6648903
3.189533 0.21644872 8.7477312
3.9692886 0.27695948 8.2909803
5.3529291 0.38002214 8.8479671
5.0940566 0.36520907 6.8374109
3.8930511 0.28183886 4.3096833
3.7628846 0.28364012 3.7880619
4.2412577 0.32191628 3.5120492
5.2514329 0.39949784 3.5375514
4.9130564 0.37547538 2.6658192
5.0900583 0.38989016 2.1508601
4.3863373 0.33675367 1.38304
4.1851192 0.30958098 3.8188303
4.4083576 0.32763168 3.3023148
6.0804224 0.45294979 3.6685853
5.314405 0.39867812 2.5510895
5.0767298 0.38173741 1.8610423
0.085125685 -0.019508678 8.5039492
1.3529896 0.074753217 8.6144905
1.7852501 0.1069105 8.6217556
2.7093651 0.175354 8.7267885
3.6344831 0.24405947 8.6411572
4.7528467 0.3257691 8.7978144
4.4810057 0.3118383 6.6697917
3.7172704 0.26064605 4.5381002
0.50401628 0.0035555908 8.555131
0.92480218 0.04113099 8.5905704
2.2379084 0.13666232 8.6697302
3.1902692 0.20531389 8.7477312
3.9680591 0.26295847 8.286479
5.3542228 0.36133465 8.8479671
5.0953002 0.34742528 6.8374109
3.8940113 0.26824787 4.3096833
3.7674093 0.27075908 3.7915664
4.2229447 0.30570459 3.496357
5.261137 0.38176975 3.5430343
4.9275908 0.35928968 2.6727755
5.1468716 0.37617514 2.1733365
4.4257598 0.32424438 1.3943202
4.1675515 0.29365832 3.8022027
4.4135065 0.31252712 3.305258
6.2797661 0.44576204 3.7851117
5.315764 0.38012499 2.5510895
5.0639005 0.36300108 1.8561116
0.085057072 -0.019805701 8.5039492
1.3532423 0.070029944 8.6144905
1.7866288 0.10073536 8.6266508
2.7099607 0.16589549 8.7267885
3.6899049 0.23484421 8.7700281
4.7563453 0.30933198 8.8022032
4.4764509 0.29582375 6.6615252
3.7149594 0.24745579 4.5342627
0.50402558 0.0017962244 8.555131
0.92494011 0.037902579 8.5905704
2.2383716 0.12884973 8.6697302
3.1926882 0.19428124 8.7524233
3.9689527 0.24910575 8.286479
5.3580537 0.34280917 8.852232
5.1115165 0.33060947 6.8573608
3.9016898 0.25509587 4.3170342
3.771889 0.25784987 3.7950706
4.2239861 0.29096189 3.496357
5.2749515 0.36426675 3.5512588
4.9288154 0.342087 2.6727755
5.1481533 0.35820693 2.1733365
4.4555769 0.31079638 1.4027804
4.2244334 0.28285009 3.8520854
4.422636 0.29766199 3.3111444
5.438283 0.36695996 3.2886086
5.1540484 0.35048279 2.4755595
5.051003 0.34435898 1.8511811
0.084987417 -0.020102486 8.5039492
1.3534784 0.065305822 8.6144905
1.7869697 0.094498247 8.6266508
2.7120135 0.15652087 8.7315607
3.6965523 0.22231425 8.7838354
4.7573957 0.29272738 8.8022032
4.4886909 0.28089905 6.6780572
3.7126017 0.23428485 4.5304251
0.5040288 3.6767018e-05 8.555131
0.92506683 0.034673706 8.5905704
2.2388079 0.12103558 8.6697302
3.193347 0.18313548 8.7524233
3.9741445 0.23550747 8.2954817
5.3592181 0.32410398 8.852232
5.169785 0.31626013 6.9331713
3.8991728 0.24126555 4.3133588
3.7798839 0.2451435 3.8020799
4.2521644 0.27799293 3.518326
5.2803636 0.34612498 3.5540004
4.9211388 0.32429758 2.6681378
5.0846109 0.33595559 2.147114
4.4614215 0.29555872 1.4041904
4.2663836 0.27070269 3.8886657
4.4276819 0.28247961 3.3140874
5.2674508 0.33696726 3.1872814
5.0193672 0.32372698 2.4126182
5.0521741 0.3267256 1.8511811
0.084958471 -0.020411717 8.5089493
1.3544744 0.060615469 8.6194296
1.7883056 0.088310085 8.631547
2.7125432 0.14705323 8.7315607
3.6934049 0.2091887 8.7746305
4.7607794 0.27625784 8.806592
4.5036893 0.26605844 6.6987219
3.7165964 0.22151466 4.5342627
0.50402582 -0.0017226221 8.555131
0.92518222 0.031444408 8.5905704
2.2392168 0.11321993 8.6697302
3.1939669 0.1719875 8.7524233
5.3629203 0.30554315 8.8564987
5.2129726 0.30064064 6.9890313
3.7771568 0.23172942 3.7985754
4.3308063 0.26795506 3.5810952
5.2982335 0.32872662 3.5649662
4.9222407 0.30711764 2.6681378
5.10426 0.31936282 2.1546061
4.4624262 0.27998364 1.4041904
4.2673025 0.25580859 3.8886657
5.2839928 0.31858891 3.9380374
5.0276299 0.30400911 3.0454233
5.2877421 0.32250464 2.5364029
5.0627112 0.30966485 1.8544682
0.084886707 -0.020708153 8.5089493
1.3546778 0.055887103 8.6194296
1.7886031 0.082067192 8.631547
2.7130401 0.13758379 8.7315607
3.6999655 0.19660588 8.7884378
4.7641063 0.25976828 8.8109808
4.5074 0.2504921 6.7028551
3.7237477 0.20889893 4.5419378
0.50372815 -0.0034794209 8.5501404
0.92528635 0.028214728 8.5905704
2.2395983 0.10540292 8.6697302
3.1945479 0.16083744 8.7524233
4.1300445 0.21581948 8.6150684
5.3639541 0.28682122 8.8564987
5.2591238 0.28488648 7.0488825
6.5783501 0.36092675 7.2204137
3.7957442 0.21957281 3.8160982
4.4288578 0.25850534 3.6595566
5.2784772 0.3090086 3.5512588
4.9055943 0.2888923 2.6588626
4.2681694 0.24091136 3.8886657
5.4787774 0.31114176 4.0793095
7.0729775 0.40290055 4.2486835
5.3341465 0.30664966 2.5573835
5.0590467 0.29171896 1.8528247
0.0848139 -0.021004336 8.5089493
1.3548646 0.051158056 8.6194296
1.7888786 0.0758233 8.631547
2.7135038 0.12811267 8.7315607
3.6986778 0.18359257 8.7838354
4.7673759 0.24325888 8.8153696
3.7148514 0.19539443 4.5304251
0.50371295 -0.0052377391 8.5501404
0.92591208 0.024998846 8.595542
2.2399526 0.09758462 8.6697302
3.1950898 0.14968541 8.7524233
4.1525159 0.20246124 8.66008
5.364923 0.26809576 8.8564987
5.269114 0.26698431 7.0608521
6.5423269 0.33604908 7.179987
7.3681707 0.400383 7.3311582
4.4297333 0.24304417 3.6595566
5.2795234 0.29058141 3.5512588
4.9331112 0.27323663 2.6727755
5.1202517 0.2844924 2.1602252
4.2167845 0.22324812 3.8421085
5.6977892 0.30362889 4.2382402
7.1216927 0.38074014 4.2765484
5.3669081 0.28974068 2.5720699
5.1590548 0.27942058 1.8873384
0.084740065 -0.021300264 8.5089493
1.3550348 0.046428386 8.6194296
1.7891325 0.069578491 8.631547
2.7154257 0.11870511 8.7363319
3.6992962 0.17068066 8.7838354
4.7705884 0.22672981 8.8197594
5.636342 0.27670661 6.8329277
0.50369155 -0.0069959937 8.5501404
0.92599374 0.021766657 8.595542
2.2402794 0.089765131 8.6697302
3.1955926 0.13853154 8.7524233
4.2293119 0.19140808 8.8176222
5.3658261 0.24936706 8.8564987
5.2940931 0.2497256 7.0927725
6.5434599 0.31321007 7.179987
7.3837695 0.37538502 7.3451757
4.3916826 0.22558364 3.6281719
5.2888579 0.27258107 3.5567417
4.9384589 0.25624472 2.6750944
5.1351023 0.26734066 2.1658442
6.1034751 0.31881514 1.8864217
4.2175384 0.20852743 3.8421085
5.8279986 0.29016921 4.3324208
5.431345 0.27420846 2.6014428
0.084665202 -0.021595931 8.5089493
1.3551887 0.041698147 8.6194296
1.7893643 0.063332833 8.631547
2.7158234 0.10922577 8.7363319
3.6998694 0.15776667 8.7838354
4.7713504 0.21007596 8.8197594
5.9125514 0.26648703 8.7651968
5.6404757 0.2571764 6.8367653
0.50366408 -0.0087541621 8.5501404
0.92606407 0.018534204 8.595542
2.2405794 0.081944555 8.6697302
3.1960568 0.12737601 8.7524233
4.2299547 0.17664386 8.8176222
5.3666639 0.2306353 8.8564987
5.2798805 0.23058708 7.0728226
6.5309668 0.28976628 7.1652865
7.3885975 0.34977722 7.3486805
4.4157705 0.21136884 3.6470029
5.5320206 0.26575366 3.7157469
4.9393229 0.23900472 2.6750944
6.0949678 0.29704109 1.8836015
4.2368898 0.19466087 3.858736
5.8814654 0.27225339 4.3706822
6.4997835 0.30200359 3.9092374
5.4776049 0.25737792 2.6224234
6.0429449 0.28499433 2.1946745
0.084589303 -0.021891337 8.5089493
1.3553261 0.0369674 8.6194296
1.7895745 0.057086397 8.631547
2.7161882 0.099745117 8.7363319
3.7003975 0.14485075 8.7838354
4.7744479 0.19351652 8.8241482
5.9190688 0.24608046 8.7734623
5.6509466 0.23789024 6.848278
0.50363046 -0.010512225 8.5501404
0.92612308 0.015301524 8.595542
2.2408516 0.074122973 8.6697302
3.1964819 0.11621891 8.7524233
4.2305455 0.16187748 8.8176222
5.3700423 0.2120036 8.8607645
5.2716208 0.21179265 7.0608521
6.460804 0.26406038 7.0881076
4.3931503 0.19491868 3.6281719
5.5370917 0.24662772 3.718488
4.9843802 0.2237481 2.6982822
6.4011669 0.28845519 2.6771824
6.1343045 0.27749804 1.8948818
4.2599258 0.18082002 3.8786893
5.8783417 0.2515488 4.3677387
6.4964919 0.27912825 3.9067042
6.0297503 0.26328087 2.1897442
0.084512368 -0.022186475 8.5089493
1.3554468 0.032236207 8.6194296
1.7897629 0.050839268 8.631547
2.7165198 0.09026324 8.7363319
3.7028332 0.13200264 8.7884378
4.7750945 0.17684941 8.8241482
5.931139 0.22584571 8.7899942
5.6517425 0.21816331 6.848278
0.5035907 -0.012270159 8.5501404
0.92617089 0.012068657 8.595542
2.2423534 0.066337563 8.6745691
3.1968682 0.10506039 8.7524233
4.2245584 0.14688237 8.8041191
5.3707495 0.19325736 8.8607645
5.2542601 0.19272746 7.036912
6.3160124 0.23606287 6.9300761
7.0772843 0.2855376 7.0402808
4.3860259 0.17926469 3.6218951
5.5504527 0.22781254 3.7267127
5.0249653 0.20799668 2.7191515
6.4113984 0.26649421 2.6809282
6.1352363 0.25608364 1.8948818
4.2866478 0.16696601 3.9019678
5.8953395 0.23166279 4.3795114
7.7508936 0.30591774 4.6438589
6.1731067 0.24687731 2.9434252
6.0353503 0.24242097 2.1913874
0.084392987 -0.022467636 8.5039492
1.3555511 0.027504615 8.6194296
1.7899295 0.04459152 8.631547
2.7168183 0.080780268 8.7363319
3.7032714 0.11907653 8.7884378
4.7756829 0.16018014 8.8241482
5.9206424 0.20475192 8.7734623
5.6620789 0.19877097 6.8597898
0.50325626 -0.014019328 8.5451479
0.92620736 0.0088356435 8.595542
2.2425714 0.058509886 8.6745691
3.1989405 0.093951203 8.7571163
4.2272205 0.132203 8.8086195
5.3739982 0.17459342 8.8650303
5.2187619 0.17318663 6.9890313
6.0152464 0.20380014 6.6029863
7.0212164 0.25873068 6.9842081
4.3710666 0.16337213 3.6093414
6.4122891 0.24411263 2.6809282
6.1312995 0.2344828 1.8934717
4.2983985 0.15239856 3.9119442
5.9243879 0.21209495 4.4001141
7.8122268 0.28102958 4.6793242
6.2011442 0.22632076 2.9560134
6.026722 0.22100613 2.1881006
0.084314041 -0.022762086 8.5039492
1.354862 0.02275981 8.6144905
1.7900742 0.038343232 8.631547
2.7170837 0.071296312 8.7363319
3.7036645 0.10614897 8.7884378
4.7762127 0.14350893 8.8241482
5.9241333 0.18417117 8.7775955
5.6627383 0.17900543 6.8597898
0.50320423 -0.015775936 8.5451479
0.92569947 0.0055995458 8.5905704
2.2427619 0.050681498 8.6745691
3.199249 0.082784243 8.7571163
4.2276564 0.11744644 8.8086195
5.3745751 0.15583362 8.8650303
5.1771679 0.15371722 6.9331713
6.4801588 0.19690448 7.1064839
7.011384 0.23386392 6.9736938
4.3599405 0.14771797 3.599926
5.0504265 0.17198379 3.3977368
5.119266 0.17610893 2.7678463
6.1416688 0.21341228 1.8962919
4.3063684 0.13763191 3.9185953
5.9412522 0.19193561 4.4118867
7.6795955 0.24942063 4.6007953
6.2381845 0.20587081 2.9727979
5.9991388 0.19902821 2.1782393
0.084234074 -0.023056259 8.5039492
1.3549331 0.018030321 8.6144905
1.789179 0.032076344 8.6266508
2.7173162 0.061811484 8.7363319
3.7040126 0.093220115 8.7884378
4.7766843 0.12683596 8.8241482
5.9219275 0.16341338 8.7734623
5.7338166 0.16121891 6.9442153
0.50314611 -0.01753235 8.5451479
0.92571336 0.0023682178 8.5905704
2.2429252 0.042852487 8.6745691
3.1995184 0.071616277 8.7571163
4.230217 0.10274127 8.8131208
5.3776932 0.13713835 8.869297
5.1746602 0.1355657 6.9291816
6.6129746 0.17783661 7.249815
7.1155329 0.21247439 7.0753264
4.3487573 0.13214347 3.5905106
5.0551758 0.15448116 3.4004781
5.159699 0.15946971 2.7887156
6.4833431 0.20150085 2.709024
6.1327868 0.19167288 1.8934717
4.2881613 0.122068 3.9019678
5.9822893 0.17235947 4.441318
6.4825191 0.18789634 3.8965714
6.2071095 0.18315729 2.9581115
6.0517187 0.17962709 2.1963181
0.084194362 -0.023364291 8.5089493
1.3549877 0.013300613 8.6144905
1.7892802 0.025830749 8.6266508
2.7175152 0.052325908 8.7363319
3.7043152 0.080290139 8.7884378
4.7794924 0.11021661 8.8285379
5.9252748 0.14280877 8.7775955
5.8272676 0.1434904 7.0555029
0.5030818 -0.019288551 8.5451479
0.92571604 -0.00086326717 8.5905704
2.2443178 0.035042483 8.679409
3.2014744 0.060479961 8.7618093
4.2305498 0.087974429 8.8131208
5.3807468 0.11842322 8.8735628
5.1811275 0.11763867 6.9371614
3.6208651 0.084747471 4.0046449
7.1554461 0.18866895 7.1138759
4.3336287 0.11654425 3.5779567
5.0515041 0.13672125 3.3977368
5.1912208 0.14230759 2.8049471
6.4701037 0.17848505 2.7034047
6.1334186 0.17026429 1.8934717
4.2885613 0.10709878 3.9019678
6.0151801 0.15229459 4.4648633
6.4960642 0.1655965 3.904171
0.084112294 -0.023658041 8.5089493
1.355026 0.0085707409 8.6144905
1.7893595 0.019584836 8.6266508
2.7176814 0.042839687 8.7363319
3.7045729 0.067359172 8.7884378
4.7798481 0.093532406 8.8285379
5.922924 0.12206687 8.7734623
5.9334826 0.12538218 7.1821404
0.50301147 -0.021044517 8.5451479
0.92570734 -0.0040946137 8.5905704
2.2444265 0.027208136 8.679409
3.2016661 0.049304362 8.7618093
4.2308316 0.073206522 8.8131208
5.3811274 0.099640183 8.8735628
5.1513791 0.098973967 6.8972611
3.6346967 0.072377577 4.0193458
7.3129349 0.16727804 7.2680759
4.3340092 0.10141635 3.5779567
5.0561309 0.1191859 3.4004781
6.2323923 0.14907522 3.3498652
6.4660535 0.15578744 2.7015319
4.322505 0.092849597 3.9318972
5.9550591 0.12997411 4.4207158
7.6645474 0.16860874 4.5906625
6.1764755 0.13910414 2.9434252
7.7334847 0.17551383 2.7814074
0.084029198 -0.023951504 8.5089493
1.3558246 0.0038427997 8.6194296
1.7894168 0.01333869 8.6266508
2.7178144 0.033352949 8.7363319
3.7047856 0.054427393 8.7884378
4.7825398 0.076885507 8.8329268
5.9233141 0.10139127 8.7734623
6.0973253 0.10755115 7.3778529
0.5032233 -0.022813875 8.5501404
0.92568743 -0.0073259105 8.5905704
2.2445078 0.01937346 8.679409
3.2018185 0.038128164 8.7618093
4.231061 0.058437716 8.8131208
5.3840499 0.080895074 8.8778286
5.1938744 0.081654333 6.9531221
3.6247582 0.059522822 4.0083203
7.3562622 0.14257915 7.3101311
4.2876382 0.085357949 3.5402954
5.0606971 0.1016199 3.4032195
6.3480258 0.12967096 3.4101536
6.4619226 0.13312027 2.6996586
7.7834492 0.13997953 7.0146356
5.8504024 0.10726047 4.3441935
7.8288717 0.14488387 4.686923
5.0561113 0.096218228 2.4252062
8.0834265 0.15522628 2.9030271
0.083945073 -0.024244675 8.5089493
1.3558298 -0.00089012296 8.6194296
1.7894524 0.0070923776 8.6266508
2.7179141 0.023865802 8.7363319
3.704953 0.041494943 8.7884378
4.7827792 0.060190856 8.8329268
5.9236317 0.080714427 8.7734623
6.1233029 0.086629353 7.4085531
0.50314057 -0.024570312 8.5501404
0.9256562 -0.010557118 8.5905704
2.2458186 0.011544909 8.6842489
3.2019322 0.026951497 8.7618093
4.2312393 0.043668203 8.8131208
5.3842998 0.062100738 8.8778286
5.2754793 0.064517789 7.0608521
3.6215539 0.046825908 4.0046449
7.3531489 0.11684349 7.3066263
4.28791 0.070390768 3.5402954
5.0108504 0.083122216 3.370322
6.2997189 0.10668652 3.3846471
6.0822582 0.10406132 2.5460701
7.9033589 0.11454014 7.1210518
7.7517438 0.11639047 4.641326
7.951714 0.12493205 2.8570087
0.083859935 -0.024537548 8.5089493
1.3558184 -0.0056228465 8.6194296
1.7904847 0.00084633502 8.631547
2.7179811 0.014378366 8.7363319
3.7070286 0.028576996 8.7930412
4.7853556 0.04351721 8.8373156
5.9266911 0.060065083 8.7775955
6.1203632 0.065220378 7.4047155
0.50305176 -0.026326453 8.5501404
0.9256137 -0.013788197 8.5905704
2.2458453 0.0037054697 8.6842489
3.2020068 0.015774503 8.7618093
4.2335424 0.028912973 8.8176222
5.3844833 0.043305647 8.8778286
5.3630533 0.046865117 7.1765633
3.6149156 0.034120139 3.9972947
7.1395531 0.088523991 7.0963535
4.3270497 0.055925444 3.5716798
4.9609375 0.064973779 3.3374245
6.0298591 0.081064351 3.2432003
7.9671807 0.087649517 7.1775851
5.1639118 0.058619384 3.8438563
5.3640776 0.061821505 3.2379451
5.5331702 0.066656701 2.6455019
7.8765526 0.096251562 2.8307126
0.083773769 -0.024830127 8.5089493
1.3557906 -0.010355502 8.6194296
1.7904767 -0.0054038768 8.631547
2.7180145 0.0048907544 8.7363319
3.7071059 0.015636878 8.7930412
4.7854781 0.026812941 8.8373156
5.9240513 0.039358046 8.7734623
6.1237588 0.043878868 7.4085531
0.50295681 -0.02808227 8.5501404
0.92556 -0.017019108 8.5905704
2.2471015 -0.0041367421 8.6890879
3.2003167 0.0045949086 8.7571163
4.2336178 0.014134976 8.8176222
5.3846021 0.024510028 8.8778286
5.3933163 0.028302055 7.2164636
3.6116226 0.021481406 3.9936194
6.3338776 0.056427635 6.3043256
4.3661399 0.041187722 3.6030643
4.961134 0.047656476 3.3374245
5.2637873 0.052391745 2.8420477
7.6728754 0.077693552 3.1885204
4.3607168 0.032769173 3.965152
5.1600432 0.040561862 3.8409133
5.3815036 0.043235444 3.2480776
5.5333691 0.047341924 2.6455019
7.9476705 0.069374815 2.8553653
0.08368659 -0.025122399 8.5089493
1.355746 -0.01508803 8.6194296
1.7914649 -0.011660526 8.6364412
2.718015 -0.0045972965 8.7363319
3.7090917 0.0026979314 8.7976437
4.7855425 0.010108342 8.8373156
5.9241524 0.018679008 8.7734623
6.0661807 0.022291224 7.339478
0.50285572 -0.029837744 8.5501404
0.92602789 -0.020261718 8.595542
2.2470732 -0.011980565 8.6890879
3.2003131 -0.0065767569 8.7571163
4.2358184 -0.0006441662 8.8221235
5.3846545 0.0057141101 8.8778286
5.4054351 0.0094967335 7.2324233
3.6082852 0.0088660745 3.9899442
6.316205 0.034221455 6.2868032
4.3818259 0.026039191 3.6156182
4.9989023 0.03056849 3.3620977
5.3658214 0.034675334 2.8953803
8.1135015 0.053830706 3.3664584
5.077683 0.020425081 4.6036482
5.1722789 0.022602616 3.8497427
5.3730001 0.024411103 3.2430112
5.5516548 0.028118463 2.6538939
7.9431415 0.041607112 2.8537216
0.083598383 -0.025414368 8.5089493
1.3556852 -0.019820375 8.6194296
1.7914133 -0.017913835 8.6364412
2.7179825 -0.014084911 8.7363319
3.7090786 -0.01024975 8.7976437
4.7855487 -0.00659705 8.8373156
5.9241815 -0.0020010851 8.7734623
5.963654 0.0010982505 7.2166781
0.50274849 -0.031592857 8.5501404
0.92595148 -0.023494037 8.595542
2.2470179 -0.019824242 8.6890879
3.2002707 -0.017747894 8.7571163
4.2357903 -0.015429928 8.8221235
5.3846416 -0.01308263 8.8778286
5.3059978 -0.0091990195 7.1007524
3.6082942 -0.0037297497 3.9899442
6.3091531 0.01215988 6.2797942
4.3818898 0.010743605 3.6156182
5.0031595 0.013129824 3.3648388
5.2254772 0.016435103 2.199559
5.0403857 0.0026809818 4.5703931
5.1763687 0.0045513832 3.8526859
5.368742 0.005651169 3.2404783
5.4564099 0.0085896775 2.6098349
7.9432383 0.013880122 2.8537216
0.083468296 -0.025690738 8.5039492
1.3556077 -0.024552478 8.6194296
1.7913399 -0.024166925 8.6364412
2.7194095 -0.023585381 8.7411041
3.7109737 -0.023209063 8.8022461
4.7854967 -0.023301693 8.8373156
5.9156961 -0.02264791 8.7610636
5.8546443 -0.019358244 7.0862026
0.50263512 -0.033347588 8.5501404
0.9258638 -0.026726069 8.595542
2.2469349 -0.027667679 8.6890879
3.2019148 -0.028934481 8.7618093
4.2378874 -0.030231079 8.8266249
5.3871717 -0.031893939 8.8820944
5.330039 -0.027846571 7.1326728
3.6082592 -0.016325025 3.9899442
6.3127232 -0.0098697329 6.2832985
4.4558549 -0.004630168 3.6752489
5.0240822 -0.0043534874 3.3785462
6.2474637 -0.0032480247 3.3568215
5.2394104 -0.0018109012 2.205178
7.5365233 -0.001302515 2.3052013
4.9283519 -0.014581623 4.4706283
5.1723108 -0.013507687 3.8497427
5.0755949 -0.012373763 3.068222
5.3520207 -0.010257158 2.5615797
7.8251848 -0.013642112 2.812634
0.083378114 -0.025981942 8.5039492
1.3555137 -0.029284285 8.6194296
1.7912446 -0.030419722 8.6364412
2.7193105 -0.03307775 8.7411041
3.7108703 -0.036162641 8.8022461
4.7877812 -0.040026117 8.8417053
5.9127665 -0.043276776 8.7569304
5.8032579 -0.039445575 7.0248027
0.50251567 -0.035101909 8.5501404
0.92523211 -0.029940287 8.5905704
2.2468247 -0.035510778 8.6890879
3.2017944 -0.040111069 8.7618093
4.2377563 -0.045023885 8.8266249
5.3870273 -0.050698482 8.8820944
5.4052382 -0.047109097 7.2324233
3.60818 -0.028920101 3.9899442
4.5025187 -0.020395929 3.7129104
5.0616689 -0.022054985 3.4032195
6.2562742 -0.02509129 3.3614593
5.1281114 -0.019672634 2.1602252
7.5172844 -0.027539555 2.2995613
4.1553965 -0.026793618 3.7822497
5.2086096 -0.031784557 3.8762312
5.0108609 -0.029707113 3.0302243
5.3337984 -0.028838342 2.5531874
7.8156457 -0.040907573 2.8093472
0.083327666 -0.026288401 8.5089493
1.3554033 -0.034015734 8.6194296
1.7911274 -0.036672149 8.6364412
2.7191784 -0.042569716 8.7411041
3.7126749 -0.049141686 8.8068485
4.787612 -0.056738347 8.8417053
5.9182081 -0.063976824 8.7651968
5.8223157 -0.059900515 7.0478277
0.50239009 -0.036855798 8.5501404
0.92512196 -0.033169765 8.5905704
2.2454305 -0.04332909 8.6842489
3.2033603 -0.051314883 8.7665024
4.2375731 -0.059816137 8.8266249
5.3894248 -0.069536082 8.8863602
5.4231191 -0.066197485 7.2563634
3.6080573 -0.041514825 3.9899442
4.9859033 -0.042594776 4.9796076
4.5685873 -0.036643762 3.7662642
5.1410055 -0.040347341 3.4553072
6.1675544 -0.046264704 3.315083
7.5315337 -0.053882591 2.3037915
4.1776786 -0.041521356 3.8022027
5.2529268 -0.050392602 3.9086061
5.2607417 -0.049554504 3.1771488
5.3608956 -0.047698986 2.5657759
7.8154554 -0.068189017 2.8093472
0.083235398 -0.026579108 8.5089493
1.3552763 -0.038746767 8.6194296
1.7909886 -0.042924125 8.6364412
2.720506 -0.052089814 8.7458763
3.7124808 -0.06210104 8.8068485
4.787385 -0.073449887 8.8417053
5.8060465 -0.080002859 7.0286403
0.50225836 -0.038609244 8.5501404
0.92500055 -0.036398843 8.5905704
2.2452655 -0.051166844 8.6842489
3.2031617 -0.062496383 8.7665024
4.2395153 -0.074646041 8.8311262
5.3891492 -0.088348262 8.8863602
5.4499702 -0.085553274 7.2922735
3.6078904 -0.054109041 3.9899442
4.9714603 -0.059826776 4.965589
4.5645394 -0.052546047 3.7631257
5.174283 -0.058672044 3.4772394
6.2337985 -0.068523817 3.3498652
6.2218618 -0.067311652 2.6022608
7.5265031 -0.080121145 2.3023813
4.2036424 -0.056455161 3.8254809
5.2527189 -0.068728432 3.9086061
5.1355338 -0.066303059 3.1036866
5.3924632 -0.066805385 2.580462
0.083142109 -0.026869493 8.5089493
1.3551328 -0.04347733 8.6194296
1.7908278 -0.049175579 8.6364412
2.7203076 -0.061585836 8.7458763
3.7141943 -0.075099185 8.81145
4.7894931 -0.090205662 8.8460932
0.50212055 -0.04036222 8.5501404
0.92486781 -0.039627474 8.5905704
2.2450731 -0.059003968 8.6842489
3.2046492 -0.073716879 8.7711945
4.2392292 -0.089444257 8.8311262
5.3914156 -0.10721125 8.890626
5.4767532 -0.10509732 7.3281837
3.6076796 -0.066702597 3.9899442
4.9640899 -0.077069268 4.9585805
4.5565443 -0.068362102 3.7568488
5.1364183 -0.076175034 3.4525661
6.4062657 -0.092786007 3.4402981
6.2169538 -0.088963255 2.6003881
7.5069909 -0.10612179 2.2967412
4.1847539 -0.070812225 3.8088536
5.2484059 -0.086996414 3.9056628
5.1352706 -0.084229015 3.1036866
5.4103489 -0.085916512 2.5888543
7.8336744 -0.12304577 2.8159211
0.083047815 -0.027159547 8.5089493
1.3541962 -0.048179563 8.6144905
1.7906452 -0.055426437 8.6364412
2.7200758 -0.071081109 8.7458763
3.7139094 -0.08806368 8.81145
4.7891493 -0.10692356 8.8460932
6.3949838 -0.13278262 7.7347412
0.50197661 -0.042114701 8.5501404
0.92472386 -0.042855624 8.5905704
2.2448535 -0.066840373 8.6842489
3.2043724 -0.084902741 8.7711945
4.2388911 -0.10424139 8.8311262
5.3910089 -0.12603015 8.890626
5.4944282 -0.1246243 7.3521247
3.6074247 -0.079295345 3.9899442
4.9637909 -0.09439671 4.9585805
4.575736 -0.084627017 3.772541
5.0817714 -0.093107894 3.4169269
6.5077715 -0.11697897 3.4936306
6.1841588 -0.11008623 2.5872767
7.4969821 -0.13215633 2.293921
4.1732817 -0.085190579 3.798877
5.2036171 -0.10442388 3.8732882
4.8978987 -0.097436853 2.9643617
5.4100165 -0.10480162 2.5888543
7.8898535 -0.15147749 2.8356433
0.082952499 -0.027449273 8.5089493
1.3540198 -0.052906297 8.6144905
1.7904409 -0.061676618 8.6364412
2.7213035 -0.08061979 8.7506485
3.7135794 -0.1010271 8.81145
4.7887468 -0.12364016 8.8460932
6.4265242 -0.15588199 7.7731166
0.50182652 -0.043866672 8.5501404
0.9251011 -0.046110038 8.595542
2.2446065 -0.07467597 8.6842489
3.2040565 -0.096087568 8.7711945
4.2385015 -0.11903724 8.8311262
5.3905358 -0.14484751 8.890626
5.5511918 -0.14530134 7.4279342
3.6071258 -0.091887124 3.9899442
4.9705615 -0.11188355 4.965589
4.5831957 -0.10076998 3.7788181
5.0270696 -0.10966019 3.3812878
6.498466 -0.13950443 3.4889929
6.1930065 -0.13186972 2.5910227
4.1617608 -0.099489734 3.7889006
5.1789756 -0.12201589 3.855629
4.8845997 -0.11423068 2.9567623
7.7287645 -0.17537476 2.7797639
0.082856178 -0.027738664 8.5089493
1.3538269 -0.057632387 8.6144905
1.7902148 -0.067926049 8.6364412
2.7210052 -0.090118423 8.7506485
3.7132039 -0.1139893 8.81145
4.7882857 -0.14035524 8.8460932
6.4964285 -0.18027037 7.8575411
0.50195777 -0.045644816 8.555131
0.92493451 -0.049338959 8.595542
2.2443321 -0.082510658 8.6842489
3.2037015 -0.10727123 8.7711945
4.23806 -0.13383165 8.8311262
5.3899975 -0.16366312 8.890626
5.5717344 -0.16530347 7.4558644
3.6067832 -0.10447779 3.9899442
4.9844007 -0.12960429 4.9796076
4.5944891 -0.11706522 3.7882333
5.0559168 -0.12794794 3.4004781
6.4979396 -0.16218747 3.4889929
6.2064123 -0.1538312 2.5966418
4.153924 -0.11381179 3.7822497
5.1502342 -0.13932781 3.835027
4.8367691 -0.13000605 2.9288971
4.8783302 -0.12857501 2.3433821
7.4023871 -0.19382289 2.6663618
0.082758851 -0.028027717 8.5089493
1.3543936 -0.062393695 8.6194296
1.7899667 -0.07417465 8.6364412
2.720674 -0.099615954 8.7506485
3.7147362 -0.12701693 8.8160534
4.7877669 -0.15706864 8.8460932
6.4925561 -0.20284593 7.8537035
0.50179535 -0.047396697 8.555131
0.92475659 -0.052567285 8.595542
2.2440305 -0.090344332 8.6842489
3.2050321 -0.11851742 8.7758875
4.2397423 -0.14870076 8.8356276
5.3893933 -0.18247671 8.890626
5.6072621 -0.18595031 7.5037451
3.6063964 -0.11706717 3.9899442
4.9839177 -0.14700231 4.9796076
4.6018338 -0.13332778 3.7945104
5.0846977 -0.1464384 3.4196684
6.3069296 -0.17945027 3.3892846
4.1460371 -0.12808034 3.7755985
5.1254754 -0.156564 3.817368
4.8405948 -0.14701962 2.9314303
4.9186807 -0.14682168 2.3622646
6.9107761 -0.2050916 2.4954367
0.082660511 -0.028316429 8.5089493
1.3541677 -0.067121029 8.6194296
1.7896969 -0.080422342 8.6364412
2.7203097 -0.10911228 8.7506485
3.7123177 -0.13990936 8.81145
4.7895832 -0.17386703 8.8504829
6.3860993 -0.22183497 7.727066
0.50162685 -0.049148001 8.555131
0.92456752 -0.055794965 8.595542
2.2437015 -0.098176911 8.6842489
3.2045989 -0.12970434 8.7758875
4.2391977 -0.16349933 8.8356276
5.3887234 -0.20128809 8.890626
5.6698146 -0.20784092 7.5875354
3.6059659 -0.12965514 3.9899442
7.8276958 -0.25825742 7.7762356
4.5974503 -0.14926404 3.7913718
5.0089288 -0.16175662 3.370322
6.2221413 -0.19877669 3.3452275
5.2089667 -0.16550046 2.1939399
4.1381016 -0.14229521 3.7689478
5.1208577 -0.17431675 3.8144248
4.8831358 -0.16537489 2.9567623
4.9226742 -0.16414145 2.3643627
8.0096779 -0.26569295 2.8783746
0.082561165 -0.028604794 8.5089493
1.354701 -0.071888894 8.6243687
1.7904222 -0.08671844 8.6413364
2.7199125 -0.11860726 8.7506485
3.7137589 -0.15294737 8.8160534
4.7889466 -0.19058473 8.8504829
6.3116193 -0.24130814 7.6388035
0.50145227 -0.050898708 8.555131
0.92436713 -0.059021972 8.595542
2.243345 -0.10600829 8.6842489
3.2041266 -0.1408897 8.7758875
4.2386012 -0.1782959 8.8356276
5.3905935 -0.2202035 8.8948917
3.6054914 -0.14224151 3.9899442
7.8231826 -0.28544953 7.7727308
4.5930109 -0.16517131 3.7882333
5.0041547 -0.17909047 3.3675804
5.2129903 -0.18384555 2.1958127
4.1338487 -0.15659766 3.7656221
5.1121407 -0.19188756 3.8085387
4.8609896 -0.18161435 2.9440963
4.922071 -0.1813238 2.3643627
7.9473548 -0.29140082 2.8570087
0.082460813 -0.028892813 8.5089493
1.3544418 -0.076617248 8.6243687
1.7901086 -0.092967659 8.6413364
2.7194817 -0.1281008 8.7506485
3.7132025 -0.16590989 8.8160534
4.7906451 -0.20740376 8.8548717
0.50127149 -0.05264879 8.555131
0.92415547 -0.062248256 8.595542
2.2442167 -0.11390219 8.6890879
3.2036152 -0.15207332 8.7758875
4.2379527 -0.19309029 8.8356276
5.3897924 -0.23901886 8.8948917
6.0385036 -0.263585 8.0783091
3.6049731 -0.15482615 3.9899442
7.8399549 -0.31346831 7.7902532
4.5885172 -0.18104941 3.7850947
5.0745282 -0.19934788 3.4141855
5.6363106 -0.21945764 3.0391459
5.1937871 -0.20132284 2.1883206
7.2049608 -0.27803317 2.2093191
4.1258154 -0.1707177 3.758971
5.0993237 -0.20923389 3.7997091
4.8344827 -0.19752522 2.9288971
4.9259429 -0.19868685 2.3664608
6.9695878 -0.27991211 2.5168023
0.082359456 -0.029180478 8.5089493
1.3541662 -0.081344664 8.6243687
1.7897731 -0.099215731 8.6413364
2.719018 -0.13759279 8.7506485
3.7126007 -0.17887037 8.8160534
4.7898922 -0.22412497 8.8548717
5.7942648 -0.26204601 7.0209651
0.50137168 -0.054429967 8.5601225
0.92446411 -0.065511696 8.6005125
2.2438054 -0.12173528 8.6890879
3.2030649 -0.1632551 8.7758875
4.2372532 -0.20788233 8.8356276
5.39153 -0.25795597 8.8991575
6.0224967 -0.28395197 8.0583582
3.6010244 -0.1672516 3.9862692
7.8815684 -0.34269217 7.8323083
4.5839691 -0.19689816 3.7819567
5.1865973 -0.22188622 3.4882052
5.6576395 -0.24006981 3.05074
6.1425686 -0.25957987 2.5722923
7.1991539 -0.3029798 2.2079091
4.1177344 -0.18478362 3.7523203
5.0783725 -0.22613341 3.7849934
4.8294568 -0.21420845 2.9263639
4.9297538 -0.21607915 2.3685589
6.9732866 -0.30444482 2.518446
0.082257092 -0.029467789 8.5089493
1.3538738 -0.086071081 8.6243687
1.789416 -0.1054626 8.6413364
2.7200117 -0.14716381 8.7554207
3.7119536 -0.19182867 8.8160534
4.7890806 -0.24084345 8.8548717
5.8093219 -0.28305027 7.040153
0.50117862 -0.056179747 8.5601225
0.9242298 -0.068738282 8.6005125
2.2433667 -0.12956688 8.6890879
3.2024755 -0.17443489 8.7758875
4.2386756 -0.22278614 8.8401289
5.3905973 -0.27677435 8.8991575
5.9612813 -0.30192372 7.9785581
3.6004186 -0.17982049 3.9862692
7.9301968 -0.37254509 7.8813715
4.571589 -0.21235606 3.772541
5.1064286 -0.23631625 3.4361172
6.2574019 -0.28631774 2.6191182
7.2555571 -0.33072901 2.2248294
4.1096053 -0.19879517 3.7456691
5.0694771 -0.24347098 3.7791069
4.8932681 -0.23415621 2.9643617
4.9380364 -0.23371506 2.3727551
6.8542576 -0.32322314 2.4773583
0.08215373 -0.029754741 8.5089493
1.3543403 -0.090848625 8.6293077
1.7890369 -0.11170819 8.6413364
2.7179911 -0.1565716 8.7506485
3.7112615 -0.20478463 8.8160534
4.7882109 -0.257559 8.8548717
5.8211017 -0.30399561 7.0555029
0.50097948 -0.057928845 8.5601225
0.92398423 -0.071964025 8.6005125
2.2429008 -0.1373969 8.6890879
3.2035699 -0.18571249 8.7805805
4.2378721 -0.23758052 8.8401289
5.3922019 -0.2957322 8.9034243
5.9391289 -0.32158992 7.9506273
3.5963836 -0.19220623 3.982594
4.5902572 -0.22928365 3.7882333
5.0638108 -0.25206053 3.4087026
5.3151464 -0.26272058 2.8721921
6.4323158 -0.31682542 2.6902936
7.3453927 -0.36052185 2.2516201
4.1051574 -0.21294568 3.7423434
8.0072765 -0.41260359 5.9217277
4.918252 -0.25256208 2.9795606
4.900929 -0.24910732 2.3559706
6.7493329 -0.34189102 2.441201
0.08204937 -0.030041331 8.5089493
1.354015 -0.095575601 8.6293077
1.7886361 -0.11795241 8.6413364
2.7174282 -0.16605821 8.7506485
3.7124743 -0.21785261 8.8206558
4.7896738 -0.27440843 8.8592606
4.0534544 -0.22585697 4.9372005
0.5007742 -0.05967724 8.5601225
0.92372745 -0.07518889 8.6005125
2.2424076 -0.14522524 8.6890879
3.2029023 -0.1968939 8.7805805
4.2370172 -0.25237203 8.8401289
5.3911371 -0.31455269 8.9034243
5.9169121 -0.34110519 7.9226971
3.5923057 -0.20456597 3.9789188
6.0186701 -0.32485965 6.0029345
4.5933161 -0.24551302 3.7913718
5.0963039 -0.27151486 3.4306343
5.2876554 -0.27986741 2.8582795
6.4774661 -0.34171888 2.709024
7.3584614 -0.38691556 2.2558503
4.093205 -0.22665466 3.732367
8.0663252 -0.44388327 5.9658751
5.1067309 -0.28011808 3.0910206
4.9181571 -0.26719818 2.3643627
0.081944004 -0.030327553 8.5089493
1.3536731 -0.10030141 8.6293077
1.7882134 -0.1241952 8.6413364
2.7168319 -0.1755428 8.7506485
3.7116911 -0.23081024 8.8206558
4.7886868 -0.29112583 8.8592606
4.0910373 -0.24227919 4.9832506
0.50056285 -0.061424904 8.5601225
0.92345929 -0.078412846 8.6005125
2.2418869 -0.15305184 8.6890879
3.2021954 -0.20807292 8.7805805
4.2361102 -0.26716045 8.8401289
5.3900061 -0.33336937 8.9034243
5.8525257 -0.35789397 7.8389072
3.5915699 -0.21710421 3.9789188
5.9818964 -0.3438201 5.9678898
4.6040888 -0.26220921 3.8007872
5.1871686 -0.29451787 3.4909463
5.3220286 -0.30031982 2.8768299
6.5595479 -0.36901456 2.7427385
4.0923891 -0.24094124 3.732367
5.0948958 -0.29819748 3.7997091
5.2563434 -0.30673248 3.1796818
