# .PCD v0.7 - Point Cloud Data file format
VERSION 0.7
FIELDS x y z
SIZE 4 4 4
TYPE F F F
COUNT 1 1 1
WIDTH 1571
HEIGHT 1
VIEWPOINT 0 0 0 1 0 0 0
POINTS 1571
DATA ascii
0.059507586 1.2300494 5.9440665
0.078433648 1.7997897 5.8063345
0.098081686 2.3824961 5.6771321
0.036838531 0.36562699 6.1940765
0.041949291 0.65892059 6.1147609
0.071716748 1.5188851 5.8919005
0.09164688 2.0852485 5.7302818
0.77017611 21.105762 20.834175
0.4850114 13.485085 10.962746
1.0249429 28.635012 18.870571
0.73305929 20.784632 8.4910765
0.42264628 12.043145 3.6320424
0.75531042 21.738327 4.2211142
0.62823981 18.081116 1.7171669
0.86093903 22.722158 20.333263
0.80279988 21.48477 12.719634
0.79236084 21.712687 5.3310122
0.70142961 19.220903 2.7747991
0.64025146 17.628771 0.80527109
0.02132931 0.064388551 6.2640352
0.053578824 0.94872409 6.0411367
0.063800901 1.2298342 5.9440665
0.084785923 1.8009959 5.8111067
0.10639755 2.3821392 5.6771321
0.038114581 0.36549616 6.1940765
0.044249099 0.65877014 6.1147609
0.077018209 1.5186256 5.8919005
0.098925203 2.0849159 5.7302818
0.8441292 21.110073 20.841183
0.53376853 13.526091 10.997268
1.1265329 28.67304 18.897985
0.80560678 20.781946 8.4910765
0.46505207 12.051183 3.6348622
0.83118677 21.735558 4.2211142
0.69192183 18.093742 1.7185081
0.94742543 23.087273 16.908545
0.87814283 21.49045 12.7247
0.71445459 17.788795 6.2853684
0.86814743 21.709789 5.3310122
0.77010179 19.257923 2.7803247
0.70178348 17.626429 0.80527109
0.021553937 0.06431371 6.2640352
0.056890164 0.94853127 6.0411367
0.068093434 1.229604 5.9440665
0.091147572 1.8021798 5.8158784
0.11471212 2.3817532 5.6771321
0.039358445 0.36507398 6.189085
0.046548363 0.65861166 6.1147609
0.082318731 1.5183475 5.8919005
0.10629022 2.0862813 5.7349749
0.66238034 14.258351 15.552011
0.91734719 21.09631 20.830669
0.58331913 13.578589 11.041207
1.2264351 28.664759 18.895245
0.87853581 20.788271 8.4948225
0.50832599 12.078243 3.6433227
0.90705299 21.732525 4.2211142
0.75756866 18.150927 1.7238731
0.58743215 13.088422 11.750148
1.0386194 23.322069 17.082191
0.95334423 21.49156 12.727233
0.77716267 17.800348 6.2902994
0.94413465 21.711483 5.3321848
0.83818042 19.274908 2.7830875
0.76222599 17.598917 0.80426341
0.021778302 0.064238079 6.2640352
0.060200807 0.94832689 6.0411367
0.072325103 1.2283424 5.9391713
0.097437799 1.8018507 5.8158784
0.12312616 2.3832891 5.6817341
0.04063255 0.36493436 6.189085
0.048847061 0.65844524 6.1147609
0.087618254 1.5180509 5.8919005
0.11357205 2.0858974 5.7349749
0.70013738 14.015552 15.291075
0.56719714 12.073177 11.957159
0.63504893 13.669784 11.116529
1.3282261 28.697897 18.919918
0.95067126 20.775816 8.4910765
0.55244982 12.119524 3.656013
0.98401797 21.753763 4.2257771
0.82137257 18.158119 1.7247672
0.63131136 13.048999 11.716893
1.1270037 23.463644 17.188147
1.0283579 21.488102 12.727233
0.98411608 20.791494 9.7096443
0.83973759 17.806959 6.2935858
1.0199162 21.708055 5.3321848
0.82248515 17.571198 0.8032558
0.022002405 0.064161666 6.2640352
0.063510716 0.948111 6.0411367
0.076612376 1.2280824 5.9391713
0.10372683 1.8014995 5.8158784
0.13144465 2.3828449 5.6817341
0.68284816 13.074286 15.751287
0.041872427 0.36450356 6.1840935
0.051145166 0.65827066 6.1147609
0.092916705 1.5177358 5.8919005
0.12085251 2.0854883 5.7349749
0.60861766 12.056876 11.94314
0.68431526 13.698585 11.141638
1.429432 28.713966 18.933626
1.0441748 21.123533 11.157265
1.0231866 20.772371 8.4910765
1.0606641 21.764914 4.2285752
0.88402402 18.140219 1.723426
1.2109804 23.499935 17.217579
1.1026958 21.471466 12.719634
1.0573772 20.801531 9.7159386
0.90619069 17.888811 6.3231692
1.0956851 21.704363 5.3321848
0.883313 17.558239 0.80285269
0.022226235 0.06408447 6.2640352
0.066819854 0.94788355 6.0411367
0.080898717 1.2278075 5.9391713
0.10992348 1.7996366 5.8111067
0.13976152 2.3823717 5.6817341
0.72830349 13.068624 15.747451
0.043144528 0.36435518 6.1840935
0.05344265 0.65808815 6.1147609
0.098214023 1.5174023 5.8919005
0.12813148 2.0850539 5.7349749
0.64512551 11.951409 11.841509
1.3147368 24.594591 19.94187
1.5260938 28.641991 18.889761
1.1181374 21.124182 11.159583
1.0954453 20.764044 8.4892035
0.63477886 12.072258 3.6433227
1.1376563 21.780701 4.2323055
0.68791348 12.421687 11.161534
1.2930032 23.495564 17.217579
1.1771662 21.458876 12.714567
0.96811801 17.876106 6.3198819
1.1717029 21.705259 5.3333569
0.94942904 17.644844 0.80648029
0.022449797 0.0640065 6.2640352
0.07012818 0.94764453 6.0411367
0.085184075 1.2275176 5.9391713
0.11620471 1.7992419 5.8111067
0.1480767 2.3818691 5.6817341
0.7816878 13.197186 15.904788
0.0444161 0.36420235 6.1840935
0.055739481 0.65789759 6.1147609
0.10342444 1.5157961 5.8870606
0.13540889 2.0845938 5.7349749
0.68581647 11.931282 11.823985
1.3990306 24.562651 19.919901
1.6123145 28.394356 18.730757
1.1913687 21.111307 11.154946
1.1679187 20.760096 8.4892035
1.1972215 21.347298 6.3745556
1.2147716 21.796217 4.2360363
0.72687942 12.344664 11.095024
1.3794978 23.567574 17.273499
1.2515622 21.44603 12.709501
1.2474612 21.701036 5.3333569
1.0127304 17.671349 0.80768943
0.0226554 0.063887857 6.2590351
0.073435649 0.94739395 6.0411367
0.089468382 1.2272128 5.9391713
0.12248453 1.7988254 5.8111067
0.15639007 2.3813379 5.6817341
0.04572387 0.36433145 6.189085
0.058035631 0.65769899 6.1147609
0.10871493 1.5154259 5.8870606
0.14268465 2.0841084 5.7349749
0.76223034 11.91695 13.023499
0.72246706 11.846944 11.743382
1.4878154 24.608124 19.960701
1.7068902 28.313427 18.68141
1.2653186 21.111441 11.157265
1.2406543 20.760517 8.4910765
1.2751544 21.400452 6.3914766
1.2908472 21.791843 4.2360363
0.7734533 12.397949 11.144907
1.4597534 23.530342 17.249952
1.3258829 21.432926 12.704434
1.2734811 20.762136 9.7033501
1.3232043 21.69655 5.3333569
1.0780478 17.727549 0.81010783
0.022878272 0.063808382 6.2590351
0.076742224 0.94713181 6.0411367
0.093751617 1.2268931 5.9391713
0.12876286 1.7983868 5.8111067
0.16470154 2.3807774 5.6817341
0.046995346 0.36416963 6.189085
0.060331076 0.6574924 6.1147609
0.11400408 1.5150372 5.8870606
0.1499587 2.0835977 5.7349749
0.80382365 11.914216 13.023499
0.767259 11.897732 11.79595
1.5714686 24.567823 19.932455
1.7937332 28.119513 18.558044
1.3409668 21.137842 11.173496
1.3131144 20.75606 8.4910765
1.3507543 21.410234 6.3957067
1.3665993 21.782301 4.2351031
0.81918043 12.43243 11.178162
1.5336856 23.40007 17.158714
1.4004085 21.423866 12.701901
1.3459468 20.757566 9.7033501
1.3630869 21.078798 7.4407558
1.3989314 21.691799 5.3333569
1.1402425 17.728662 0.81030935
0.023100864 0.063728131 6.2590351
0.080047868 0.94685823 6.0411367
0.098033704 1.2265582 5.9391713
0.13503961 1.7979264 5.8111067
0.173011 2.380188 5.6817341
0.048266247 0.36400339 6.189085
0.062625788 0.65727782 6.1147609
0.11929186 1.51463 5.8870606
0.15723088 2.0830615 5.7349749
0.84612715 11.921483 13.034524
0.80757546 11.877192 11.778427
1.657741 24.569954 19.938732
1.8828934 27.979578 18.470318
1.4126723 21.102093 11.157265
1.3858675 20.755978 8.4929495
1.4445738 21.806808 4.2406993
0.8584367 12.369898 11.124953
1.6729943 24.229282 17.767948
1.4748869 21.414545 12.699368
1.4174677 20.739159 9.6970568
1.4353726 21.055065 7.4341817
1.4749712 21.691635 5.3345294
1.2021202 17.724575 0.81030935
0.023323178 0.063647106 6.2590351
0.083352529 0.94657296 6.0411367
0.10231458 1.2262086 5.9391713
0.14143185 1.7989322 5.8158784
0.18146688 2.3815176 5.686337
0.96470213 13.169003 15.8856
0.049536567 0.36383268 6.189085
0.064919733 0.6570552 6.1147609
0.12457818 1.5142044 5.8870606
0.16450118 2.0825 5.7349749
0.88723212 11.911695 13.027174
0.84750354 11.852958 11.7574
1.7421179 24.544605 19.923038
1.9784817 27.943638 18.451128
1.4860125 21.092617 11.154946
1.458311 20.751013 8.4929495
1.5367498 22.03195 4.2845325
0.90161043 12.366827 11.124953
1.9333589 26.64617 19.536787
1.5496286 21.409266 12.699368
1.4898523 20.734083 9.6970568
1.5098726 21.064056 7.4391122
1.5506802 21.686354 5.3345294
1.2572294 17.625587 0.80648029
0.023545204 0.063565306 6.2590351
0.086656176 0.94627631 6.0411367
0.10668263 1.2268584 5.9440665
0.14771043 1.7984276 5.8158784
0.18977883 2.3808699 5.686337
1.0082113 13.133596 15.847225
0.05076554 0.3633717 6.1840935
0.067212887 0.65682459 6.1147609
0.12997057 1.5150126 5.8919005
0.17176946 2.0819132 5.7349749
0.92854267 11.905146 13.023499
0.88833934 11.842814 11.75039
1.8338559 24.619888 19.988947
2.0911953 28.140888 18.585459
1.5586499 21.074045 11.147989
1.5310777 20.750418 8.4948225
1.5748833 21.394915 6.3957067
1.6129284 22.016653 4.2826672
2.0239069 26.607014 19.513243
1.6240253 21.399429 12.696836
1.5618774 20.724232 9.6949577
1.5837449 21.06337 7.4407558
1.6263701 21.680809 5.3345294
1.6754704 22.335316 3.2161441
1.3172551 17.601164 0.80567414
0.023766946 0.063482732 6.2590351
0.089884974 0.94519454 6.0361972
0.11096451 1.2264786 5.9440665
0.15398721 1.7979009 5.8158784
0.19808847 2.3801928 5.686337
1.0763652 13.407958 16.181087
0.052033637 0.36319229 6.1840935
0.069505222 0.65658599 6.1147609
0.13537012 1.5158018 5.89674
0.17903563 2.0813007 5.7349749
0.96844113 11.881558 13.001448
0.93106896 11.857417 11.767913
1.9137305 24.535725 19.926178
2.2199092 28.525286 18.843157
1.6315184 21.059643 11.143352
1.6035007 20.744947 8.4948225
1.6477119 21.365374 6.3886561
1.6893951 22.005989 4.2817345
1.7366871 22.621977 2.1298208
0.99714696 12.47561 11.228045
2.1135638 26.559496 19.48381
1.6987134 21.393631 12.696836
1.6342089 20.718653 9.6949577
1.6572601 21.057713 7.4407558
1.7020404 21.674999 5.3345294
1.752262 22.31452 3.2140718
1.3794671 17.606421 0.80607718
0.024006912 0.0634389 6.2640352
0.093183771 0.944875 6.0361972
0.11524504 1.2260838 5.9440665
0.16039482 1.7988393 5.8206506
0.20639569 2.3794868 5.686337
1.1311907 13.499941 16.296213
0.053301096 0.36300844 6.1840935
0.071796715 0.65633935 6.1147609
0.14089306 1.517823 5.9064183
0.18645367 2.0823822 5.7396679
0.97303659 11.861204 11.774922
2.3350608 28.709078 18.969265
1.7046627 21.049406 11.141033
1.6759044 20.739223 8.4948225
1.7238232 21.37862 6.3942966
1.7661999 21.999958 4.2817345
1.8176345 22.640596 2.1320562
1.7733808 21.387569 12.696836
1.706148 20.7083 9.6928606
1.7311419 21.056503 7.442399
1.7780871 21.673769 5.3357015
1.8313582 22.323074 3.2161441
0.02422821 0.063354708 6.2640352
0.096481435 0.94454402 6.0361972
0.11952418 1.225674 5.9440665
0.16667296 1.7982686 5.8206506
0.21470039 2.3787518 5.686337
0.054567907 0.36282021 6.1840935
0.074087329 0.65608472 6.1147609
0.14631109 1.5185732 5.9112582
0.1937214 2.0817187 5.7396679
1.01565 11.871947 11.78894
2.4317248 28.659086 18.941851
1.7777555 21.038912 11.138714
1.7482877 20.733248 8.4948225
1.7968289 21.35335 6.3886561
1.8429834 21.99366 4.2817345
1.8979014 22.649002 2.1333976
1.1731727 13.491271 12.142557
3.1401634 36.25705 26.582714
1.8480265 21.38125 12.696836
1.7784231 20.702217 9.6928606
1.8046323 21.050331 7.442399
1.8537319 21.667429 5.3357015
1.9075806 22.296808 3.2133813
1.9617729 22.97739 1.0239321
0.024449211 0.063269749 6.2640352
0.099777922 0.94420141 6.0361972
0.12390438 1.2262623 5.9489617
0.17294908 1.7976757 5.8206506
0.22300246 2.3779879 5.686337
0.055878777 0.36291274 6.189085
0.076439045 0.65635157 6.1197329
0.15186113 1.5205547 5.9209371
0.20115277 2.0827475 5.7443609
1.0599322 11.9003 11.820481
2.6366487 29.837505 19.723167
1.8507959 21.028168 11.136395
1.8210552 20.731636 8.4966955
1.8721929 21.356504 6.3914766
1.9197444 21.987091 4.2817345
1.9782492 22.657124 2.1347387
1.2219412 13.505687 12.159184
3.2855716 36.4552 26.735758
1.9222634 21.370373 12.694302
1.8506765 20.695885 9.6928606
1.8785204 21.048607 7.4440422
1.9297851 21.665667 5.3368735
1.9867173 22.304811 3.2154531
2.0419669 22.970404 1.0239321
0.024669915 0.063184023 6.2640352
0.10307319 0.94384742 6.0361972
0.12818408 1.2258223 5.9489617
0.17937133 1.7985463 5.8254223
0.23130183 2.3771951 5.686337
0.057145234 0.36271548 6.189085
0.078729674 0.65608072 6.1197329
0.15716793 1.5200154 5.9209371
0.20842169 2.0820327 5.7443609
2.4084136 25.197241 27.518347
1.1001503 11.882323 11.806463
1.9237828 21.017168 11.134077
1.893411 20.725155 8.4966955
1.9467294 21.349838 6.3914766
1.9964819 21.980257 4.2817345
2.0568745 22.645119 2.1342916
2.7698886 29.467505 26.442207
3.4139347 36.455585 26.744587
1.9976506 21.372118 12.699368
1.9224871 20.684778 9.6907616
1.9519823 21.041922 7.4440422
2.0058491 21.663641 5.3380461
2.0645638 22.297743 3.2154531
2.122596 22.968111 1.0241337
0.024890319 0.063097522 6.2640352
0.1063672 0.94348186 6.0361972
0.13246222 1.2253674 5.9489617
0.18564832 1.7979093 5.8254223
0.24018659 2.3822043 5.7001443
0.058457699 0.36279863 6.1940765
0.081085049 0.65633094 6.1247044
0.16247281 1.5194575 5.9209371
0.21568806 2.0812924 5.7443609
2.4940131 25.165066 27.49262
1.9971347 21.010324 11.134077
1.9661816 20.723032 8.4985685
2.0216949 21.347689 6.3928862
2.0736568 21.978046 4.2826672
2.1363761 22.642761 2.1347387
2.8745444 29.476236 26.458836
3.540777 36.439426 26.741646
2.0701604 21.343563 12.686702
1.9946789 20.67794 9.6907616
2.0258732 21.039682 7.4456863
2.0819218 21.661345 5.3392181
2.1428585 22.295328 3.2161441
2.2051423 22.985426 1.0251414
0.025110418 0.063010253 6.2640352
0.1097499 0.94387662 6.0411367
0.13685189 1.2259095 5.9538565
0.1920817 1.7987345 5.8301945
0.24850057 2.3813515 5.7001443
0.059771445 0.3628771 6.1990681
0.083375573 0.65604395 6.1247044
0.16763757 1.5176316 5.9160976
0.22295183 2.0805268 5.7443609
2.5846095 25.183184 27.522022
1.2859688 12.90702 12.826286
2.0704622 21.003225 11.134077
2.0385065 20.716043 8.4985685
2.0961998 21.340502 6.3928862
2.1508403 21.975561 4.2835999
2.2154012 22.635166 2.1347387
2.9792953 29.4846 26.475464
3.6703823 36.45097 26.759304
2.1463754 21.353363 12.696836
2.0668461 20.670851 9.6907616
2.099772 21.03718 7.4473295
2.1575215 21.653944 5.3392181
2.2206707 22.287712 3.2161441
2.284374 22.967646 1.0247382
0.025330212 0.062922217 6.2640352
0.11304397 0.94348776 6.0411367
0.14113028 1.2254243 5.9538565
0.19885071 1.8025043 5.8445106
0.26016572 2.4115477 5.7737851
0.06103776 0.36266628 6.1990681
0.085665092 0.6557489 6.1247044
0.17279156 1.5157883 5.9112582
0.23040283 2.0814512 5.7490535
2.6707101 25.157154 27.503649
1.339432 12.984042 12.90689
3.2688673 31.850008 25.898661
2.1442144 21.000277 11.136395
2.1112766 20.713415 8.5004416
2.1711652 21.33783 6.3942966
2.2280319 21.972807 4.2845325
2.2943993 22.627293 2.1347387
3.0821977 29.474022 26.475464
3.7996926 36.458038 26.774021
2.2213452 21.350027 12.699368
2.1389883 20.663511 9.6907616
2.1731925 21.029722 7.4473295
2.2335937 21.651117 5.3403907
2.2989638 22.28475 3.2168345
2.3650439 22.964502 1.0249398
0.025549699 0.062833413 6.2640352
0.11643204 0.94385856 6.0460763
0.14552715 1.2259353 5.9587522
0.20514141 1.8017992 5.8445106
0.27226105 2.4436324 5.8520274
0.062253647 0.36216661 6.1940765
0.08795356 0.65544587 6.1247044
0.1780816 1.5151761 5.9112582
0.23766705 2.0806341 5.7490535
2.761466 25.174639 27.533047
2.9064512 27.241808 27.002176
3.3816676 31.85388 25.911213
2.21611 20.979448 11.129439
2.1840534 20.710529 8.5023146
2.2456348 21.330122 6.3942966
2.3052301 21.969782 4.2854648
2.3738887 22.624098 2.1351857
3.1854634 29.466791 26.478786
3.9286635 36.460629 26.785791
2.2843304 21.234991 12.636039
2.2106214 20.651407 9.6886644
2.2470887 21.026705 7.4489732
2.3091564 21.64319 5.3403907
2.3772635 22.281513 3.217525
2.4451907 22.956108 1.0249398
0.02576887 0.06274385 6.2640352
0.11982406 0.94421715 6.0510149
0.14992931 1.2264305 5.9636474
0.21247454 1.8099672 5.8731422
0.28101248 2.4446082 5.8566303
0.063517466 0.36194709 6.1940765
0.090240955 0.65513486 6.1247044
0.18336947 1.5145452 5.9112582
0.24513027 2.0815055 5.753746
2.8504694 25.174952 27.544073
3.0023062 27.238586 27.009184
3.4919894 31.834146 25.904936
4.3197789 39.443943 26.099817
2.2898092 20.975988 11.131758
2.2563336 20.70278 8.5023146
2.3205957 21.32692 6.3957067
2.3824346 21.966486 4.2863979
2.452847 22.615675 2.1351857
3.2891309 29.462915 26.485439
4.0572524 36.458744 26.794622
2.3574884 21.218319 12.630972
2.2826948 20.643564 9.6886644
2.3204718 21.018732 7.4489732
2.3852236 21.639828 5.3415627
2.4555686 22.278004 3.2182159
2.5253077 22.947432 1.0249398
0.025987731 0.062653519 6.2640352
0.12322 0.94456357 6.0559545
0.15433672 1.22691 5.9685426
0.21771523 1.8003231 5.8445106
0.28954405 2.4436123 5.8566303
0.064728841 0.36143917 6.189085
0.092602171 0.65534353 6.1296754
0.18865511 1.5138958 5.9112582
0.25281045 2.0840635 5.7631316
2.936363 25.14801 27.525698
3.0961595 27.21731 26.998671
3.6017764 31.810162 25.895521
4.462605 39.474331 26.129974
2.3590465 20.932652 11.113208
2.3291039 20.699383 8.5041876
2.3955624 21.323458 6.3971167
2.4596443 21.962915 4.2873302
2.53233 22.611925 2.135633
3.3928101 29.458673 26.49209
4.1867976 36.464436 26.809338
2.4207382 21.115742 12.575243
2.3552549 20.639978 9.6907616
2.3943615 21.015196 7.4506164
2.4612958 21.6362 5.3427353
2.5338781 22.274216 3.2189064
2.6059573 22.943441 1.0251414
0.026226155 0.062601253 6.2690344
0.12672329 0.94566792 6.0658331
0.15874925 1.2273734 5.9734378
0.22362919 1.7965895 5.8349667
0.29830882 2.444526 5.8612328
0.065937437 0.36092713 6.1840935
0.094889179 0.65501636 6.1296754
0.19393843 1.5132281 5.9112582
0.2605114 2.0865929 5.7725172
3.0249379 25.144341 27.533047
3.1894844 27.192165 26.984652
3.7164037 31.828323 25.92063
4.5998845 39.454357 26.127232
2.4259629 20.871487 11.085382
2.4013443 20.691128 8.5041876
2.4705324 21.319729 6.3985267
2.5368576 21.959076 4.2882628
2.6112449 22.602947 2.135633
3.4964998 29.454067 26.498741
4.3131065 36.441574 26.803452
2.4893715 21.06435 12.549911
2.4288785 20.645155 9.6970568
2.4677036 21.00671 7.4506164
2.5368052 21.627478 5.3427353
2.6121912 22.270155 3.2195973
2.686029 22.934204 1.0251414
0.026444517 0.062509328 6.2690344
0.13012962 0.94598943 6.0707722
0.16303264 1.2268118 5.9734378
0.22989909 1.7957981 5.8349667
0.30708352 2.4454083 5.8658357
0.067196906 0.3606948 6.1840935
0.09725365 0.65520841 6.1346469
0.19938369 1.513788 5.9160976
0.26823315 2.0890942 5.7819028
3.2830999 27.170246 26.974138
3.8288774 31.826752 25.930044
4.7375779 39.438061 26.127232
2.4914281 20.801315 11.052918
2.4741058 20.687223 8.5060606
2.5460751 21.320503 6.4013467
2.6134937 21.950085 4.2882628
2.6907165 22.598639 2.13608
3.6006515 29.452801 26.508718
4.4441977 36.458389 26.826996
2.5503838 20.952831 12.489115
2.486732 20.519407 9.6425066
2.54215 21.007343 7.4539037
2.6128666 21.623316 5.3439074
2.6911008 22.270733 3.2209787
2.7666667 22.929649 1.0253428
0.026642399 0.062377945 6.2640352
0.13353977 0.94629884 6.0757113
0.16745184 1.2272441 5.978333
0.23616619 1.7949846 5.8349667
0.31586796 2.446259 5.8704381
0.068455555 0.36045802 6.1840935
0.099620603 0.65539187 6.1396189
0.20483521 1.5143286 5.9209371
0.27597547 2.0915666 5.7912879
3.3818839 27.190474 27.005682
3.9418638 31.828642 25.942598
4.8767529 39.433731 26.135456
2.5564327 20.73094 11.020455
2.5446029 20.664658 8.5004416
2.621067 21.316244 6.4027567
2.6906958 21.945707 4.2891955
2.7701905 22.594053 2.1365271
3.7048368 29.451166 26.518694
4.5719376 36.446671 26.829939
2.6256504 20.960911 12.499247
2.557781 20.506096 9.6404085
2.6142967 20.98897 7.4506164
2.6877306 21.60924 5.3427353
2.7694347 22.266115 3.2216692
2.8473048 22.92481 1.0255444
0.026859976 0.062284566 6.2640352
0.13695364 0.94659585 6.0806508
0.17173471 1.2266521 5.978333
0.24423045 1.8074626 5.8779144
0.32440507 2.4451416 5.8704381
0.06976901 0.36050016 6.189085
0.10190775 0.65504009 6.1396189
0.21029295 1.5148493 5.9257765
0.28373837 2.0940108 5.800674
3.4763229 27.174965 27.002176
4.0539265 31.822412 25.948875
5.0101509 39.383286 26.113523
2.6215341 20.664759 10.990311
2.6097286 20.600458 8.4779654
2.6954587 21.306967 6.4027567
2.7678988 21.941053 4.2901278
2.8496644 22.589186 2.1369741
3.8085759 29.445459 26.525345
4.6918931 36.374367 26.788734
2.6195281 20.420517 9.6047411
2.6827457 20.942247 7.437469
2.7656112 21.619011 5.3474245
2.8490262 22.271049 3.2237413
2.927943 22.919687 1.0257459
0.027077228 0.062190425 6.2640352
0.14025703 0.94611204 6.0806508
0.17616037 1.227053 5.9832282
0.25217947 1.8184272 5.9160905
0.33320203 2.44593 5.8750405
0.071026966 0.36025444 6.189085
0.10427777 0.6552068 6.1445904
0.21593411 1.5165948 5.9354553
0.29128391 2.094717 5.8053665
3.3698709 25.631653 25.484707
4.1659932 31.815786 25.955153
5.1269913 39.208004 26.00935
2.6793306 20.545668 10.932341
2.6756351 20.545252 8.4592352
2.7710547 21.306942 6.4055767
2.8444707 21.931257 4.2901278
2.9297795 22.588978 2.1378684
3.912812 29.443087 26.53532
4.8013082 36.225533 26.69161
2.8488493 21.52327 12.843759
2.6878271 20.388748 9.5942516
2.7490513 20.881254 7.4193902
2.8435934 21.628502 5.3521137
2.9267495 22.260969 3.2237413
3.009881 22.924187 1.0263505
0.02727359 0.062057041 6.2590351
0.1436756 0.94638485 6.0855904
0.1804425 1.2264307 5.9832282
0.25873578 1.8190137 5.9208622
0.34173787 2.444752 5.8750405
0.072284058 0.36000431 6.189085
0.10656423 0.65483886 6.1445904
0.22159004 1.5183194 5.9451342
0.29883778 2.0953956 5.8100591
3.666908 27.157103 27.009184
4.2780633 31.808764 25.96143
5.2354336 38.978512 25.869534
2.7604427 20.606438 10.969441
2.7393432 20.476051 8.434885
2.8295314 21.178268 6.3703256
2.9216566 21.926065 4.2910609
3.0099273 22.588486 2.1387625
4.0165734 29.436651 26.541973
4.9113784 36.088402 26.603317
2.9262848 21.530281 12.853892
2.7541096 20.343266 9.5774679
2.8168621 20.834093 7.4062419
2.907366 21.53174 5.3310122
3.0017865 22.230989 3.2209787
3.0912185 22.923443 1.0267535
0.027490042 0.061961461 6.2590351
0.14697821 0.94587755 6.0855904
0.18502626 1.227807 5.9930191
0.26400632 1.8107141 5.8970022
0.35054687 2.445478 5.879643
0.073598854 0.36003247 6.1940765
0.1088494 0.65446287 6.1445904
0.22726062 1.5200229 5.954813
0.30639994 2.0960472 5.8147521
3.7655981 27.172398 27.03722
4.3901353 31.801348 25.967705
5.3788862 39.013851 25.905174
2.8082783 20.447994 8.427393
2.90344 21.168262 6.3703256
2.9928484 21.876797 4.2835999
3.0894325 22.582775 2.1392095
4.1203375 29.429846 26.548622
5.0339656 36.04702 26.585657
3.0008261 21.515667 12.851359
2.810739 20.230133 9.529212
2.8824301 20.772682 7.3881631
2.9798391 21.502201 5.3263226
3.0820875 22.239994 3.2237413
3.1746416 22.937256 1.0277612
0.027706161 0.061865125 6.2590351
0.15027906 0.94535875 6.0855904
0.18946637 1.2281598 5.9979138
0.27032527 1.8097816 5.8970022
0.35936511 2.4461725 5.8842454
0.074855149 0.35977337 6.1940765
0.11113323 0.6540789 6.1445904
0.23275545 1.5204628 5.9596524
0.31371465 2.0949647 5.8147521
3.8649414 27.190863 27.068764
4.5022078 31.793539 25.973984
2.9593079 20.977053 11.175815
2.8789911 20.433475 8.4255199
2.9679551 21.091496 6.3505855
3.0596354 21.798113 4.2705431
3.169627 22.581718 2.1401036
4.224103 29.422678 26.555275
5.1632013 36.053238 26.603317
3.077132 21.513594 12.856424
2.9069488 20.399923 9.6131344
2.9515958 20.73912 7.3799458
3.0446174 21.419485 5.3087382
3.1513383 22.170267 3.2154531
3.2546885 22.926035 1.0277612
0.027921941 0.061768036 6.2590351
0.15370294 0.94559526 6.090529
0.19407019 1.2295026 6.0077043
0.36790165 2.4449031 5.8842454
0.076110542 0.35950989 6.1940765
0.11350717 0.65421212 6.1495614
0.23825616 1.5208828 5.9644918
0.32128716 2.0955627 5.8194447
3.9428632 27.060749 26.953112
4.6148376 31.789186 25.983398
5.3967195 37.220768 24.742792
3.0331478 20.97098 11.178134
2.9403574 20.354477 8.3974247
3.0326545 21.019283 6.3322549
3.1287084 21.738678 4.2612171
3.2470133 22.560658 2.1392095
4.3284121 29.418833 26.56525
3.1522095 21.50272 12.856424
3.0010982 20.546833 9.6865654
3.0096557 20.630564 7.3454323
3.1144612 21.375059 5.3005319
3.2287078 22.159134 3.2154531
3.3332567 22.904648 1.0273582
0.028137382 0.061670195 6.2590351
0.15713035 0.9458195 6.0954685
0.19852321 1.2298228 6.0125999
0.37673128 2.4455349 5.8888483
0.077426553 0.35952407 6.1990681
0.11579011 0.65381193 6.1495614
0.24376255 1.5212829 5.9693313
0.32833248 2.0927236 5.8147521
3.9030387 26.147392 26.059452
4.728065 31.78828 25.995953
5.5247674 37.189293 24.734568
3.1089296 20.977793 11.187409
3.104604 20.999079 6.3294349
3.1988375 21.688747 4.2537556
3.3061261 22.416164 2.1271384
4.4321895 29.410929 26.571901
5.1719947 34.401489 25.41428
3.2278893 21.495852 12.858958
3.0823495 20.624603 7.3470755
3.185467 21.340021 5.2946706
3.2943401 22.069363 3.2044022
3.4043479 22.833578 1.0249398
0.02835248 0.061571602 6.2590351
0.16056114 0.94603127 6.1004076
0.20298082 1.2301269 6.0174947
0.28949821 1.8083254 5.9017744
0.38526544 2.444205 5.8888483
0.078743584 0.35953343 6.2040601
0.11807164 0.6534037 6.1495614
0.24907133 1.5204227 5.9693313
0.33590898 2.0932686 5.8194447
3.7092516 24.268717 24.205547
4.8413424 31.786978 26.008507
5.6589508 37.198719 24.753757
3.1854599 20.98871 11.199003
3.1518691 20.791809 8.5847273
3.2627866 21.599733 4.2388339
3.3798902 22.374943 2.1244559
4.5365343 29.406351 26.581879
5.2945061 34.399208 25.426052
3.3042142 21.492975 12.864025
3.1534023 20.5837 9.7138405
3.1678958 20.702408 7.3783026
3.2481883 21.251894 5.2759132
3.3601336 21.984299 3.194042
3.484031 22.821554 1.0249398
0.028567232 0.061472256 6.2590351
0.16399537 0.94623059 6.1053472
0.20744298 1.2304147 6.0223899
0.29653236 1.8117231 5.9160905
0.39379498 2.4428453 5.8888483
0.079998113 0.35925639 6.2040601
0.12044869 0.65351182 6.1545329
0.25458479 1.5207839 5.9741707
0.3432138 2.0920835 5.8194447
3.8038626 24.319042 24.268629
4.9552674 31.78911 26.024197
5.7829747 37.141556 24.729086
3.260745 20.990593 11.205959
3.2265594 20.794424 8.5903473
3.3329091 21.554232 4.2323055
3.4526455 22.32856 2.1213264
4.6414819 29.405087 26.595179
5.4145503 34.380516 25.426052
3.3798883 21.485567 12.866558
3.2217193 20.55015 9.7033501
3.2503691 20.756538 7.4013114
3.4330261 21.947973 3.1905887
3.5482481 22.710533 1.0209092
0.028803129 0.061410137 6.2640352
0.16756849 0.94718248 6.1152253
0.21190964 1.2306867 6.0272856
0.30162278 1.8033158 5.8922305
0.40263742 2.4433835 5.8934503
0.081316158 0.35925636 6.2090516
0.12272914 0.65308738 6.1545329
0.25989175 1.519886 5.9741707
0.35137069 2.0959783 5.8335233
3.8915462 24.323227 24.286152
5.0680408 31.783155 26.033615
3.3367772 20.996584 11.215235
3.2998524 20.787613 8.5922203
3.4595571 21.818235 6.583241
3.4127328 21.571579 4.2379012
3.5212274 22.257345 2.1159613
4.745882 29.399767 26.605158
5.5370979 34.377365 25.437826
3.4555516 21.477898 12.869091
3.3213093 20.735739 7.3980241
3.4763365 21.727856 5.3978343
3.4947536 21.842949 3.1774657
3.6164632 22.628942 1.0180877
0.029017316 0.061309226 6.2640352
0.17101203 0.9473564 6.1201649
0.21638069 1.2309422 6.0321808
0.30867022 1.806666 5.9065461
0.41116396 2.441963 5.8934503
0.082635179 0.35925147 6.2140431
0.1251087 0.65317845 6.1595049
0.26519558 1.5189695 5.9741707
0.35897622 2.0964401 5.8382158
3.9718204 24.281338 24.258116
5.1814585 31.780634 26.046165
5.7961278 35.589775 23.725708
3.4121799 20.997927 11.222191
3.3746233 20.789696 8.5978394
3.5341604 21.796555 6.580421
3.4887953 21.564384 4.2388339
3.5845823 22.156429 2.107914
4.8503008 29.394072 26.615133
5.6163497 34.110554 25.255348
3.5319014 21.474211 12.874158
3.3921442 20.714699 7.3947372
3.5529444 21.720387 5.3990068
3.5725772 21.840393 3.1788471
3.6865685 22.561943 1.0158709
0.029252904 0.061245378 6.2690344
0.17431787 0.94675368 6.1201649
0.22067617 1.2301794 6.0321808
0.31471813 1.8041072 5.9017744
0.41968551 2.4405129 5.8934503
0.083888702 0.35896084 6.2140431
0.12749039 0.65326089 6.1644764
0.27071679 1.519272 5.9790101
0.36718383 2.1002736 5.852294
4.0624337 24.3025 24.293161
5.294282 31.773874 26.055584
5.9168921 35.548706 23.712002
3.4869072 20.994629 11.226829
3.4471724 20.77779 8.5978394
3.5513997 21.429148 6.4746685
3.5816801 21.658697 4.2593517
3.6789637 22.246962 2.1173027
4.9547381 29.388008 26.625111
5.5328622 32.886974 24.366516
3.6075535 21.466003 12.876691
3.4691074 20.730677 7.4045987
3.631145 21.722233 5.4025235
3.6618559 21.905935 3.189898
3.7546048 22.484877 1.0132509
0.02946651 0.061142895 6.2690344
0.17776521 0.94690311 6.125104
0.22496894 1.2294017 6.0321808
0.3212755 1.8044671 5.9065461
0.42820194 2.4390333 5.8934503
0.085141197 0.35866582 6.2140431
0.12987418 0.65333462 6.1694474
0.27601838 1.5183177 5.9790101
0.37481615 2.100678 5.856987
4.6364541 27.1532 27.149366
5.4077735 31.770548 26.068136
6.0409436 35.527836 23.712002
3.5616529 20.991064 11.231466
3.5212288 20.774773 8.6015854
3.555707 21.000402 6.3505855
3.6695364 21.718714 4.2733407
3.7565975 22.233982 2.1173027
5.0591917 29.381571 26.635086
5.646256 32.859493 24.360628
3.6831906 21.457525 12.879224
3.6440873 21.318893 7.6166115
3.7094018 21.723799 5.4060402
3.7449675 21.93207 3.1954234
3.8456695 22.545507 1.016274
0.02965774 0.061001997 6.2640352
0.18106943 0.94627684 6.125104
0.229259 1.2286088 6.0321808
0.32757229 1.8033346 5.9065461
0.43671313 2.4375236 5.8934503
0.086392656 0.35836643 6.2140431
0.13226005 0.65339965 6.1744189
0.28131661 1.517345 5.9790101
0.38276491 2.1027527 5.8663726
4.735496 27.161442 27.173899
5.5206399 31.762981 26.077553
6.1692138 35.531246 23.728449
3.6371725 20.991596 11.238422
3.5953062 20.77149 8.6053314
3.9436626 22.807728 6.8934479
3.7478325 21.720297 4.2761388
3.8418069 22.264902 2.1213264
5.1630149 29.371088 26.641739
5.7637157 32.855507 24.3724
3.7588134 21.448786 12.881757
3.7460854 21.464205 7.6724906
3.7860446 21.715508 5.4072127
3.83341 21.987164 3.2050929
3.9303453 22.566399 1.0176847
0.029870497 0.060898103 6.2640352
0.18437144 0.94563901 6.125104
0.23354624 1.2278011 6.0321808
0.33386514 1.8021802 5.9065461
0.44521901 2.4359844 5.8934503
0.087643057 0.35806268 6.2140431
0.13464797 0.65345609 6.1793909
0.28661141 1.5163538 5.9790101
0.3897875 2.0997071 5.86168
4.8309031 27.148258 27.177402
5.6335196 31.755014 26.086967
6.2968512 35.530079 23.742155
3.7119675 20.987495 11.24306
3.668597 20.76338 8.6072044
4.0315905 22.841064 6.9075484
3.804028 21.595814 4.2546887
3.9255497 22.285686 2.1244559
5.2674856 29.363913 26.651714
5.8783679 32.835186 24.3724
3.8351784 21.444021 12.886824
3.7837219 21.241795 7.5985327
3.8635259 21.711731 5.4095573
3.910136 21.97365 3.2050929
4.0134645 22.577135 1.0186924
0.030082891 0.060793463 6.2640352
0.18767123 0.94498968 6.125104
0.23783064 1.2269784 6.0321808
0.340431 1.8024706 5.9113183
0.4537195 2.4344153 5.8934503
0.0888924 0.35775456 6.2140431
0.13703787 0.65350378 6.1843624
0.29190275 1.5153441 5.9790101
0.3990404 2.1085067 5.8898363
4.9313717 27.162809 27.208942
5.7464108 31.746645 26.096382
6.5867615 36.425465 24.353504
3.7875655 20.98749 11.250016
3.742697 20.759571 8.6109505
4.1138473 22.841015 6.9117785
3.8872097 21.625916 4.263082
4.0041986 22.276751 2.124903
5.3712964 29.352692 26.658365
5.9965801 32.834354 24.387117
3.9107823 21.434744 12.889357
3.8553131 21.214518 7.5936017
3.9410269 21.707678 5.4119024
3.9894683 21.974483 3.207165
4.0967073 22.587566 1.0196999
0.030272499 0.060650643 6.2590351
0.19112293 0.94509029 6.130043
0.24230956 1.2271396 6.0370755
0.34672076 1.8012713 5.9113183
0.46257916 2.434736 5.8980532
0.09021201 0.35772184 6.2190347
0.13942973 0.65354264 6.1893334
0.29743275 1.5155494 5.9838495
0.40574419 2.1037121 5.8804507
5.024859 27.138418 27.201935
5.8593125 31.737877 26.105799
6.7260046 36.468044 24.397367
3.8616042 20.978497 11.252336
3.8168159 20.755499 8.6146965
4.1935525 22.826515 6.9117785
3.9600165 21.597719 4.2602839
4.0837307 22.272434 2.1257973
5.4750938 29.341105 26.665016
6.1044955 32.777454 24.360628
3.9871566 21.429438 12.894423
3.9302027 21.205574 7.5952454
4.0185466 21.703346 5.4142466
4.069756 21.979904 3.2099278
4.1800709 22.597692 1.0207076
0.030484026 0.060544606 6.2590351
0.19442075 0.94441742 6.130043
0.2465916 1.2262863 6.0370755
0.35300624 1.80005 5.9113183
0.47107518 2.4331064 5.8980532
0.091460146 0.35740474 6.2190347
0.14171018 0.65305197 6.1893334
0.30272117 1.5145019 5.9838495
0.41208664 2.0972035 5.8663726
5.1195593 27.120712 27.201935
5.9729428 31.732533 26.118351
6.8609886 36.485439 24.424782
3.9388952 20.98666 11.263929
3.8909516 20.751163 8.6184425
4.2749724 22.821167 6.9145985
4.0353827 21.583763 4.2602839
4.1632814 22.267834 2.1266913
5.5795732 29.332819 26.674994
6.4857645 34.161705 25.402506
4.0627384 21.419624 12.896955
4.0042 21.191725 7.5952454
4.0960841 21.698738 5.4165912
4.1492109 21.98016 3.2119999
4.2617044 22.597692 1.0213122
0.030695181 0.060437828 6.2590351
0.19771621 0.94373298 6.130043
0.25107506 1.2264156 6.0419707
0.35928744 1.7988068 5.9113183
0.47994354 2.4333639 5.9026556
0.092707165 0.35708332 6.2190347
0.14410408 0.65307379 6.1943049
0.30825672 1.5146676 5.9886889
1.0165843 5.0789261 14.139719
5.2141972 27.102676 27.201935
6.0836735 31.711491 26.118351
6.9646916 36.338066 24.342537
4.0038047 20.929272 11.240741
3.9659736 20.751112 8.6240616
4.3573065 22.820242 6.9188285
4.1097798 21.564722 4.2593517
4.243782 22.267839 2.1280324
5.6840611 29.32416 26.684969
6.6364508 34.301563 25.523178
4.1391182 21.413776 12.902022
4.0772557 21.172983 7.5936017
4.1736383 21.693853 5.4189358
4.2287173 21.980131 3.2140718
4.3443303 22.602301 1.0221183
0.03090596 0.060330313 6.2590351
0.20100924 0.94303709 6.130043
0.25535449 1.2255318 6.0419707
0.36586186 1.7990046 5.9160905
0.48920426 2.4355044 5.9118605
0.093953051 0.35675755 6.2190347
0.14638285 0.65256679 6.1943049
0.31354201 1.5135823 5.9886889
1.0336177 5.0719652 14.130334
5.3087711 27.084311 27.201935
6.1958232 31.697699 26.124628
7.0914927 36.313534 24.342537
4.0649719 20.854298 11.208279
4.0401568 20.746246 8.6278076
4.4387693 22.814312 6.9216485
4.183157 21.5406 4.2574863
4.3233843 22.262667 2.1289268
5.7878337 29.311466 26.69162
6.7592711 34.294048 25.534948
4.215507 21.407658 12.907088
4.155684 21.181791 7.6018195
4.2521439 21.693464 5.4224529
4.3082738 21.979815 3.2161441
4.4251208 22.596806 1.0225214
0.031116365 0.060222063 6.2590351
0.20429982 0.9423297 6.130043
0.25963086 1.224633 6.0419707
0.37213933 1.7977165 5.9160905
0.49770275 2.4337819 5.9118605
0.095197789 0.3564274 6.2190347
0.14865984 0.65205181 6.1943049
0.31908292 1.5137086 5.9935284
1.0471094 5.0480494 14.07402
5.4025826 27.062117 27.198429
6.3071914 31.679697 26.127768
4.1368794 20.835634 11.205959
4.1143541 20.74111 8.6315536
4.5202446 22.808088 6.9244685
4.2611818 21.540323 4.2602839
4.4039688 22.262096 2.1302679
5.893795 29.309387 26.708248
6.8813262 34.282139 25.543779
4.291903 21.401266 12.912155
4.1990623 21.014345 7.5475836
4.3297453 21.688023 5.4247975
4.3878803 21.979212 3.2182159
4.5069032 22.595921 1.023126
0.031349454 0.06015012 6.2640352
0.20775545 0.94236952 6.1349826
0.26390404 1.2237192 6.0419707
0.37841225 1.7964065 5.9160905
0.50659341 2.4339426 5.9164629
0.096365146 0.35581449 6.2140431
0.15105566 0.65204817 6.1992764
0.32436481 1.5125856 5.9935284
1.0661498 5.0511179 14.092793
5.504118 27.078039 27.233475
6.4192829 31.665119 26.134045
4.2315307 20.929619 11.263929
4.1885648 20.73571 8.6352997
4.5931892 22.759256 6.9145985
4.3305254 21.496426 4.2546887
4.4836178 22.256351 2.1311622
5.9945698 29.281317 26.701595
7.0317044 34.408398 25.655619
4.3683062 21.394602 12.917221
4.2658 20.967167 7.5360789
4.4073606 21.682302 5.4271421
4.467535 21.978319 3.2202878
4.5887332 22.594738 1.0237306
0.031559225 0.060040325 6.2640352
0.21104366 0.94163859 6.1349826
0.26839229 1.223785 6.0468664
0.38468057 1.7950747 5.9160905
0.51508641 2.4321594 5.9164629
0.097606592 0.35547593 6.2140431
0.1533308 0.65151691 6.1992764
0.32991073 1.5126722 5.9983678
1.082688 5.0423036 14.078713
5.6029401 27.079618 27.254503
6.5329213 31.657761 26.146597
4.2992048 20.888687 11.250016
4.2618546 20.725506 8.6371727
4.6745367 22.752481 6.9174185
4.4173779 21.538923 4.2658801
4.5642815 22.255201 2.1325035
6.1028376 29.289457 26.728199
4.4447155 21.387665 12.922288
4.2401657 20.457117 9.7453117
4.3217268 20.868916 7.506496
4.4849887 21.676308 5.4294868
4.5462327 21.972288 3.2216692
4.6695986 22.588369 1.0241337
0.031791933 0.059966672 6.2690344
0.2143293 0.94089621 6.1349826
0.27266246 1.2228407 6.0468664
0.39094421 1.793721 5.9160905
0.5235731 2.4303467 5.9164629
0.09884683 0.35513306 6.2140431
0.15560409 0.65097773 6.1992764
0.3351889 1.5115113 5.9983678
1.1002823 5.0384936 14.078713
6.6465878 31.650003 26.159151
4.3575635 20.80418 11.212916
4.3360729 20.719576 8.6409187
4.7500019 22.717243 6.9117785
4.6449914 22.253759 2.1338446
6.2065887 29.275282 26.734852
4.5211287 21.380455 12.927355
4.3115482 20.442192 9.7453117
4.3711772 20.742807 7.467052
4.5626287 21.670031 5.4318314
4.6269836 21.97567 3.224432
4.7504749 22.581709 1.0245367
0.032001063 0.059855331 6.2690344
0.21761234 0.94014233 6.1349826
0.27692932 1.2218815 6.0468664
0.39720309 1.7923453 5.9160905
0.53163517 2.4265957 5.9118605
0.10000675 0.35450825 6.2090516
0.15800156 0.65094858 6.2042484
0.34046304 1.5103321 5.9983678
1.117115 5.0312529 14.069327
4.5405684 20.895243 23.258831
5.0688119 23.66428 23.862103
6.7602792 31.641834 26.171705
4.4587789 20.923151 11.284798
4.4103026 20.713383 8.6446648
4.5717211 21.526781 4.2696104
4.7247124 22.247152 2.1347387
5.2917714 24.537817 22.438305
4.5975461 21.372972 12.932421
4.391448 20.466955 9.7641935
4.4564242 20.787447 7.4884171
4.6412973 21.66823 5.435348
4.6984797 21.935175 3.2209787
4.8313622 22.57476 1.0249398
0.032209802 0.059743263 6.2690344
0.22089273 0.93937695 6.1349826
0.28119281 1.2209073 6.0468664
0.40378532 1.7924042 5.9208622
0.5401023 2.4247253 5.9118605
4.3688245 19.887377 24.454748
0.10132371 0.35443434 6.2140431
0.16027284 0.65039307 6.2042484
0.34573299 1.5091345 5.9983678
1.1342906 5.0256395 14.064634
4.6054325 20.84285 23.218405
5.1559396 23.667349 23.883129
6.873168 31.629454 26.18112
4.5374169 20.933435 11.298711
4.4845409 20.706924 8.6484108
4.8012886 22.225655 2.1342916
5.3693938 24.482725 22.40505
4.6748872 21.369427 12.940021
4.4551229 20.416025 9.7474089
4.5661798 20.942474 7.5492272
4.7189746 21.661396 5.4376931
4.7771263 21.928314 3.2223599
4.9122586 22.567522 1.0253428
0.032394443 0.059593838 6.2640352
0.22435115 0.93935585 6.1399217
0.28545284 1.2199184 6.0468664
0.41003948 1.7909838 5.9208622
0.54813147 2.4209199 5.9072585
4.4445057 19.900158 24.489285
0.10256029 0.35407847 6.2140431
0.16267183 0.65034664 6.2092199
0.35099876 1.5079185 5.9983678
1.1510549 5.0182862 14.05525
4.6722159 20.800186 23.189005
5.2346663 23.631798 23.865608
6.9868937 31.620474 26.193674
4.6219029 20.969381 11.326536
4.5597858 20.704727 8.6540308
4.7303257 21.532722 4.2770715
4.8809786 22.218489 2.1351857
5.4320698 24.361794 22.311935
4.7513242 21.361395 12.945086
4.5440564 20.480104 9.7851744
4.7097769 21.244513 7.6626296
4.7966609 21.654284 5.4400377
4.8418612 21.858324 3.2147627
4.9931631 22.559992 1.0257459
0.032602269 0.059480395 6.2640352
0.22762874 0.93856698 6.1399217
0.28970942 1.2189145 6.0468664
0.4162887 1.7895416 5.9208622
0.55614054 2.4170878 5.9026556
0.10387767 0.35399511 6.2190347
0.16494097 0.64977485 6.2092199
0.35626024 1.5066841 5.9983678
1.1681732 5.012557 14.050557
4.7425299 20.773836 23.177979
5.3280926 23.66209 23.914671
7.1006389 31.611082 26.206228
4.7037892 20.992023 11.347405
4.6340566 20.697729 8.6577759
4.8183088 21.573606 4.2882628
4.9509072 22.167294 2.1320562
5.4493999 24.044088 22.039246
4.8287125 21.357292 12.952685
4.6165166 20.468546 9.7872725
4.8067455 21.329292 7.6987867
4.8743548 21.646893 5.4423823
4.925746 21.875109 3.2195973
5.0751719 22.557047 1.0263505
0.032809693 0.05936623 6.2640352
0.23090357 0.93776673 6.1399217
0.29396245 1.2178959 6.0468664
0.42287621 1.7895302 5.9256339
0.56323999 2.409425 5.8888483
0.10519572 0.35390687 6.2240267
0.16720811 0.64919519 6.2092199
0.36151737 1.5054313 5.9983678
1.1844703 5.0034103 14.036478
5.4607763 23.862358 24.135456
7.2135372 31.597486 26.215643
4.7790036 20.984116 11.352043
4.7093635 20.694992 8.6633959
4.9266477 21.667286 6.6213117
4.8935857 21.556656 4.2882628
5.0436897 22.217867 2.1383154
6.7333274 29.235271 26.801361
4.9061294 21.352911 12.960285
4.6838808 20.434612 9.7788801
4.872735 21.275558 7.6856384
4.9531398 21.643959 5.445899
5.0142264 21.910879 3.2271948
5.1572204 22.553804 1.0269551
0.033016723 0.059251342 6.2640352
0.23417558 0.93695498 6.1399217
0.2982119 1.2168623 6.0468664
0.42912027 1.7880431 5.9256339
0.10651442 0.35381371 6.2290182
0.1694732 0.64860755 6.2092199
0.36706805 1.5053815 6.0032072
1.2011214 4.9958897 14.027093
5.5828075 24.009884 24.303677
7.3273082 31.587284 26.228197
4.8522229 20.967306 11.352043
4.7847066 20.691977 8.669014
5.1555991 22.313654 6.8215365
4.9809484 21.592096 4.2985215
5.1301694 22.238947 2.141892
6.831933 29.197048 26.788059
8.124877 34.777237 26.088264
4.9835749 21.348248 12.967885
5.0319633 21.640741 5.4494162
5.0962868 21.91736 3.2306483
5.2393084 22.550264 1.0275596
0.033223346 0.059135731 6.2640352
0.23744474 0.93613189 6.1399217
0.30245775 1.2158139 6.0468664
0.43535909 1.7865343 5.9256339
0.10774881 0.35343975 6.2290182
0.17173624 0.64801204 6.2092199
0.37232056 1.504091 6.0032072
1.2173253 4.9866376 14.013015
3.5094168 14.663079 16.423027
5.6952772 24.111727 24.426334
7.4410944 31.576668 26.240751
4.9253826 20.950241 11.352043
4.8600864 20.688686 8.674633
5.0470982 21.5016 6.5818305
5.0585303 21.584143 4.3003869
5.2145848 22.249996 2.1445746
6.9329453 29.169388 26.784733
8.2620888 34.815521 26.138296
5.061048 21.343307 12.975485
4.9527073 20.951504 7.5820971
5.1108255 21.637236 5.4529333
5.1807303 21.933174 3.2354829
5.3214345 22.546425 1.0281643
0.033429567 0.059019398 6.2640352
0.2409049 0.93604976 6.1448612
0.30669987 1.2147508 6.0468664
0.4415926 1.7850038 5.9256339
0.1090678 0.35333714 6.2340102
0.17399716 0.6474086 6.2092199
0.37756854 1.5027821 6.0032072
1.233479 4.9773331 13.998937
3.5966065 14.79898 16.588408
5.7386432 23.921772 24.25461
7.5548968 31.565645 26.253305
4.9984827 20.932919 11.352043
4.9355021 20.685125 8.680253
5.0776215 21.297201 6.5254297
5.1463556 21.618921 4.3106456
5.299139 22.260725 2.1472569
7.0382276 29.159529 26.798035
8.3788319 34.766823 26.123581
5.1385469 21.338083 12.983084
5.0269141 20.938681 7.5837412
5.189724 21.633442 5.45645
5.2630358 21.939032 3.2389362
5.4035978 22.542288 1.0287689
0.033635378 0.058902349 6.2640352
0.24417086 0.93520319 6.1448612
0.31093827 1.2136728 6.0468664
0.44782072 1.7834514 5.9256339
0.11038736 0.35322955 6.2390013
0.17639647 0.64731151 6.214191
0.38281193 1.5014551 6.0032072
1.2500036 4.9696498 13.989551
3.6791034 14.911411 16.728064
5.7934146 23.783789 24.135456
7.6677923 31.550425 26.26272
5.0694342 20.906734 11.347405
5.010951 20.681288 8.6858721
5.1632195 21.32597 6.5395298
5.2206345 21.59605 4.3097134
5.3967037 22.324381 2.1548574
7.1444139 29.152916 26.814663
8.444418 34.509644 25.952879
5.2160711 21.332579 12.990684
5.0999732 20.921005 7.5837412
5.2686586 21.629364 5.4599671
5.3454447 21.944584 3.2423897
5.4846148 22.532995 1.0291719
0.033840779 0.058784578 6.2640352
0.24763295 0.93509614 6.1498003
0.31542924 1.2135655 6.0517616
0.45404342 1.7818774 5.9256339
0.11161969 0.35284209 6.2390013
0.17865492 0.6466918 6.214191
0.38805068 1.5001097 6.0032072
1.2664897 4.9619122 13.980165
3.7640755 15.030022 16.875071
5.8070555 23.483002 23.851589
7.780674 31.534801 26.272135
5.1434398 20.893211 11.349724
5.0864334 20.677174 8.6914902
5.2490802 21.354401 6.5536299
5.2971578 21.582466 4.3106456
5.4662886 22.271553 2.1517279
7.2497392 29.142294 26.827967
8.5424147 34.389732 25.885185
5.2936192 21.326792 12.998283
5.149148 20.806816 7.5492272
5.3476276 21.624998 5.4634838
5.4279571 21.949827 3.2458429
5.5668316 22.528263 1.0297765
0.034045771 0.058666095 6.2640352
0.25089553 0.93422604 6.1498003
0.31966344 1.2124571 6.0517616
0.46026054 1.7802817 5.9256339
1.4542404 5.6807909 13.874228
5.3512087 21.163544 26.212324
0.11293944 0.352725 6.2439933
0.18105526 0.64657748 6.2191625
0.39328468 1.4987459 6.0032072
1.2829369 4.9541202 13.97078
3.814847 15.01022 16.867722
7.8944864 31.522556 26.284689
5.1647916 20.668842 11.238422
5.1608262 20.668289 8.6952372
5.3108144 21.28475 6.5381203
5.3712749 21.559078 4.3097134
5.5476089 22.266832 2.153069
7.3541622 29.12767 26.837942
8.7780151 34.818272 26.229534
5.3711905 21.320723 13.005882
5.2228956 20.793293 7.5508709
5.4266295 21.62034 5.467001
5.510571 21.954763 3.2492967
5.6466517 22.51354 1.029978
0.034250345 0.058546897 6.2640352
0.25435942 0.93409419 6.1547394
0.32389376 1.2113338 6.0517616
0.46647209 1.7786641 5.9256339
1.4750435 5.6794624 13.883432
5.4266438 21.150944 26.220001
0.11425973 0.35260302 6.2489848
0.18331115 0.64594156 6.2191625
0.39851388 1.497364 6.0032072
1.2997838 4.9479427 13.966087
5.6882925 22.332542 22.726631
8.007349 31.506124 26.294106
9.3905611 36.975563 25.096441
5.2521529 20.710804 11.270885
5.235218 20.659136 8.6989832
5.4015656 21.331186 6.5578604
5.4489055 21.549721 4.3115783
5.6253009 22.247332 2.153069
7.4594989 29.116291 26.851244
8.8924875 34.760006 26.208933
5.4487844 21.314375 13.013482
5.335103 20.930515 7.60675
5.5044651 21.610687 5.4693456
5.593286 21.959389 3.2527499
5.7289009 22.508219 1.0305827
0.034454506 0.058426984 6.2640352
0.25761849 0.9332006 6.1547394
0.32812014 1.2101958 6.0517616
0.47267795 1.777025 5.9256339
1.4893844 5.6534972 13.832805
0.11558054 0.35247612 6.2539768
0.18556479 0.64529771 6.2191625
0.4037382 1.4959638 6.0032072
1.3170475 4.9433756 13.966087
5.7662125 22.31255 22.726631
8.1201935 31.489288 26.30352
9.5080957 36.898022 25.066284
5.3751941 20.889687 11.37755
5.3107629 20.654205 8.7046013
5.5177751 21.474817 6.6072111
5.5350819 21.573393 4.3199716
5.7338653 22.348154 2.1642461
7.5639062 29.100914 26.861219
8.986351 34.623119 26.129467
5.5263987 21.307743 13.021082
5.2526226 20.295862 9.7788801
5.4637017 21.126638 7.6839952
5.5883803 21.624283 5.4775515
5.6785774 21.973291 3.2575846
5.8049359 22.478409 1.0301796
0.034658242 0.058306359 6.2640352
0.26066479 0.93154752 6.1498003
0.33234248 1.2090431 6.0517616
0.47926688 1.7768054 5.9304061
1.5070925 5.6407142 13.814395
0.11690184 0.35234424 6.2589684
0.18781617 0.64464605 6.2191625
0.40928948 1.4957576 6.0080466
1.334295 4.9387479 13.966087
5.8323059 22.247438 22.68107
8.2340012 31.475813 26.316074
9.648469 36.909107 25.096441
5.4592681 20.913658 11.400738
5.3863387 20.649 8.7102213
5.5939131 21.460068 6.6086216
5.6115909 21.558695 4.3209047
5.850728 22.477404 2.1781056
7.6682963 29.085167 26.871197
9.0680475 34.443005 26.017628
5.6040335 21.300829 13.028681
5.3315039 20.308132 9.7935667
5.5625777 21.203356 7.7185087
5.6625967 21.599943 5.4763794
5.7590113 21.967705 3.2596567
5.8985572 22.516003 1.0325979
0.034861557 0.058185026 6.2640352
0.26391491 0.93063194 6.1498003
0.33656082 1.2078756 6.0517616
0.48507231 1.7736819 5.9256339
1.526773 5.6354194 13.814395
0.11822365 0.35220748 6.2639599
0.19006526 0.64398652 6.2191625
0.41450819 1.4943198 6.0080466
1.3515264 4.9340601 13.966087
3.9500573 14.6805 16.559008
5.8796873 22.113209 22.565418
8.346818 31.458168 26.325491
9.7783184 36.879246 25.099182
5.5379066 20.915884 11.412332
5.4619408 20.643517 8.7158403
5.7118907 21.633966 4.3395572
5.9380527 22.490549 2.1812351
7.7726693 29.069042 26.881172
9.1141863 34.133873 25.808662
5.6816874 21.293634 13.036282
5.4532094 20.494738 7.4703383
5.6817551 21.368662 5.423625
5.8382034 21.957041 3.2610381
5.9860978 22.529074 1.0340086
0.035064451 0.058062978 6.2640352
0.26716182 0.92970502 6.1498003
0.34077504 1.2066934 6.0517616
0.49165955 1.7734163 5.9304061
1.5454001 5.6262879 13.805189
0.11945237 0.35179263 6.2639599
0.19231203 0.64331913 6.2191625
0.41938147 1.4916539 6.0032072
1.3692029 4.9309754 13.97078
3.988786 14.620833 16.507555
5.9689112 22.137316 22.610979
8.4585981 31.436357 26.331766
9.9080772 36.848927 25.101925
5.6131802 20.904984 11.416969
5.5375714 20.637756 8.7214594
5.5796003 20.808884 6.4224968
5.7848315 21.604404 4.3376918
5.968864 22.291693 2.1646929
7.8789773 29.059752 26.8978
9.2163792 34.039429 25.761572
5.7604847 21.290316 13.046413
5.5524154 20.563984 9.9341354
5.5345569 20.512049 7.4834867
5.7461877 21.311153 5.4142466
5.9122334 21.926966 3.2596567
6.0751004 22.546633 1.0356209
0.035266913 0.05794023 6.2640352
0.27018806 0.92802083 6.1448612
0.34498513 1.2054965 6.0517616
0.4966352 1.7673782 5.9160905
