# .PCD v0.7 - Point Cloud Data file format
VERSION 0.7
FIELDS x y z
SIZE 4 4 4
TYPE F F F
COUNT 1 1 1
WIDTH 1427
HEIGHT 1
VIEWPOINT 0 0 0 1 0 0 0
POINTS 1427
DATA ascii
-0.95336384 -0.98900735 0.98524648
-0.94141412 -0.97728276 0.79686636
-0.92990065 -0.96566093 0.62995738
-0.91512179 -0.95063877 0.47779894
-0.91267622 -0.94875342 0.34141433
-0.90440446 -0.9401511 0.21006347
-0.97888732 -1.0112514 1.3346816
-0.95730501 -0.9896369 1.0861151
-0.93919569 -0.97124863 0.87955546
-0.92782706 -0.96048731 0.70480323
-0.91886264 -0.95153242 0.54952204
-0.90820259 -0.94081479 0.40610644
-0.90102232 -0.93337309 0.27315614
-0.89487636 -0.92732298 0.14566039
-1.1301302 -1.1246418 10.135781
-1.19859 -1.2039347 8.1909752
-1.3182763 -1.3370215 6.0497055
-1.189768 -1.2125629 4.061646
-1.1091008 -1.1334891 2.973506
-1.0522555 -1.0776293 2.2847328
-1.0174298 -1.0430442 1.821147
-0.99243551 -0.9663747 12.876006
-1.2566577 -1.2652718 6.9033403
-1.2405527 -1.2572975 4.8574276
-1.1395789 -1.159375 3.4251683
-1.076668 -1.0980295 2.5855753
-1.0348781 -1.0568712 2.0334218
-1.0010394 -1.0237263 1.6304888
-0.99461889 -1.0232128 1.4820702
-0.9701547 -0.99907821 1.2052836
-0.95098513 -0.97967291 0.97976357
-0.93865091 -0.9676317 0.79222876
-0.93003839 -0.95908093 0.62808436
-0.91509563 -0.94399428 0.4763889
-0.90914667 -0.93850541 0.33954909
-0.90421569 -0.9334116 0.20961639
-0.97980493 -1.0051547 1.331356
-0.95511281 -0.98049867 1.0802288
-0.93957275 -0.96487588 0.87702227
-0.92800951 -0.95398951 0.7027052
-0.91888642 -0.94493383 0.5478785
-0.90809304 -0.93415362 0.40493411
-0.89737129 -0.92312068 0.27177477
-0.8946262 -0.92061079 0.14545885
-1.1379184 -1.1245123 10.170357
-1.2027853 -1.1997435 8.1909752
-1.3145208 -1.3239383 6.0115299
-1.1885004 -1.202844 4.0432358
-1.1046454 -1.1210812 2.9515605
-1.0520645 -1.0699369 2.2764668
-1.0143259 -1.0326267 1.8096343
-0.99848598 -0.96549749 12.910807
-1.2601776 -1.2599888 6.8985004
-1.2388518 -1.2468392 4.8339639
-1.1374928 -1.1492016 3.4071634
-1.0749968 -1.0886974 2.5727777
-1.0343295 -1.0489613 2.0254416
-0.99984932 -1.0153948 1.6231384
-0.99319506 -1.0146379 1.4750612
-0.96819347 -0.99011999 1.1990067
-0.9514761 -0.97335732 0.97702211
-0.9358319 -0.95801175 0.78759116
-0.93338048 -0.95582867 0.62808436
-0.91168338 -0.93392903 0.47356883
-0.90555674 -0.92829365 0.33768386
-0.90399098 -0.92668492 0.20916931
-0.97807628 -0.99639946 1.324705
-0.95286834 -0.97138786 1.0743425
-0.93991691 -0.95851249 0.87448907
-0.92498189 -0.94426018 0.6985091
-0.91887522 -0.93834662 0.54623502
-0.91134834 -0.93097806 0.40493411
-0.89712399 -0.91644394 0.2710841
-0.89433998 -0.9139117 0.14525732
-1.1451647 -1.1237981 10.199991
-1.2069659 -1.1955377 8.1909752
-1.3170234 -1.3172307 6.001986
-1.1858016 -1.191764 4.0202231
-1.1018039 -1.1104184 2.9340041
-1.0498527 -1.0602595 2.2640681
-1.0134159 -1.0245224 1.8019594
-1.0037732 -0.96385175 12.935664
-1.2645682 -1.2555823 6.8985004
-1.2370933 -1.2364082 4.8105001
-1.1368867 -1.1405988 3.3936598
-1.0769516 -1.0830891 2.5685117
-1.0337384 -1.0410682 2.0174615
-0.9986133 -1.0070839 1.6157881
-0.9917236 -1.0060854 1.468052
-0.96618164 -0.9811877 1.1927298
-0.94900119 -0.96407044 0.97153914
-0.93295711 -0.94842339 0.78295356
-0.93346077 -0.94925934 0.62621135
-0.91157484 -0.92731988 0.47215876
-0.9053492 -0.92162287 0.33675122
-0.90373027 -0.91997117 0.20872223
-0.9789235 -0.9903239 1.3213795
-0.95057219 -0.96230483 1.0684562
-0.94022799 -0.95215839 0.87195593
-0.92508513 -0.93779463 0.69641101
-0.92214513 -0.93513346 0.54623502
-0.9145925 -0.92779118 0.40493411
-0.89684105 -0.90978014 0.2703934
-0.89401811 -0.90722591 0.14505579
-1.15242 -1.1230471 10.229628
-1.2125838 -1.1927452 8.2007656
-1.3110214 -1.3021072 5.9542661
-1.1830399 -1.1807173 3.9972105
-1.0989016 -1.0997891 2.9164479
-1.0495733 -1.0526031 2.2558022
-1.0124618 -1.0164372 1.7942843
-1.0094469 -0.96254849 12.965493
-1.2662579 -1.2485132 6.8839827
-1.2352772 -1.2260047 4.7870364
-1.1346921 -1.1304779 3.3756549
-1.0770347 -1.0756375 2.5599799
-1.030974 -1.0310613 2.0054917
-0.99733162 -0.99879432 1.6084378
-0.99020457 -0.99755561 1.461043
-0.96411932 -0.97228152 1.1864529
-0.94647294 -0.95481271 0.96605617
-0.93314457 -0.94201386 0.78063476
-0.93350655 -0.9427011 0.62433827
-0.91143143 -0.92072314 0.47074872
-0.90510613 -0.91496468 0.33581862
-0.9034338 -0.91327053 0.20827515
-0.97710603 -0.98160851 1.3147285
-0.95107478 -0.95611519 1.065513
-0.93746656 -0.94275725 0.86688954
-0.92195576 -0.92812014 0.69221497
-0.92207634 -0.92855817 0.54459149
-0.91782552 -0.92459297 0.40493411
-0.89652252 -0.90312958 0.26970273
-0.89366037 -0.90055346 0.14485426
-1.1602424 -1.1227993 10.264202
-1.2167398 -1.1885052 8.2007656
-1.3081187 -1.2901863 5.9208622
-1.1802156 -1.1697048 3.9741976
-1.0959387 -1.0891939 2.8988914
-1.0492532 -1.0449617 2.2475364
-1.0114636 -1.008371 1.7866094
-1.0151237 -0.96121734 12.995322
-1.2688117 -1.2423269 6.8743033
-1.2334034 -1.215629 4.7635722
-1.1339883 -1.1219172 3.3621514
-1.0789311 -1.070035 2.5557141
-1.0302905 -1.0232098 1.9975116
-0.99600422 -0.9905259 1.6010875
-0.98863804 -0.98904872 1.454034
-0.96200669 -0.96340179 1.180176
-0.94684595 -0.94854373 0.96331471
-0.93017006 -0.93247855 0.77599716
-0.93024451 -0.93287146 0.62059224
-0.91125304 -0.91413867 0.46933872
-0.90482759 -0.90831959 0.33488598
-0.90310162 -0.90658331 0.20782807
-0.97523969 -0.97291785 1.3080776
-0.94868523 -0.94707823 1.0596267
-0.93770134 -0.93643308 0.8643564
-0.92198014 -0.92168754 0.69011688
-0.92531204 -0.92533392 0.54459149
-0.917611 -0.91794598 0.4037618
-0.89616853 -0.89649236 0.26901206
-0.89679849 -0.89742851 0.14485426
-1.1675166 -1.1219721 10.293838
-1.223074 -1.1863774 8.2154522
-1.3051488 -1.2783015 5.8874583
-1.1773292 -1.1587265 3.9511855
-1.0946198 -1.0803149 2.8857243
-1.0468917 -1.0353568 2.2351375
-1.0104216 -1.0003244 1.7789344
-1.0200267 -0.9591282 13.015208
-1.2704368 -1.235262 6.8597851
-1.2314725 -1.2052815 4.7401085
-1.1316857 -1.1118498 3.3441465
-1.0826596 -1.0662622 2.5557141
-1.0274193 -1.0132599 1.9855415
-0.99463123 -0.98227894 1.5937371
-0.98702425 -0.98056507 1.4470248
-0.96260363 -0.95729327 1.1770375
-0.94422239 -0.93933499 0.9578318
-0.93027985 -0.92610067 0.77367836
-0.93021029 -0.92634743 0.61871922
-0.91103995 -0.90756667 0.46792868
-0.90451378 -0.90168756 0.33395338
-0.89920688 -0.89639366 0.20693392
-0.97332472 -0.96425235 1.3014265
-0.94911486 -0.94091535 1.0566835
-0.93790346 -0.9301188 0.8618232
-0.92197084 -0.91526616 0.68801886
-0.92853636 -0.92209834 0.54459149
-0.91736132 -0.91131186 0.40258947
-0.89929235 -0.89335877 0.26901206
-0.89638191 -0.89077109 0.14465272
-1.1753613 -1.1216441 10.328412
-1.2264743 -1.1813946 8.210557
-1.3021121 -1.2664533 5.8540545
-1.1729831 -1.1464171 3.9235702
-1.0932525 -1.0714586 2.8725572
-1.0464839 -1.0277528 2.2268715
-1.0093358 -0.99229717 1.7712594
-1.0257068 -0.95774382 13.045037
-1.2720279 -1.2282008 6.8452673
-1.2282468 -1.1937597 4.7119522
-1.1293268 -1.1018121 3.3261416
-1.0845103 -1.0606531 2.5514481
-1.0266442 -1.0054508 1.9775614
-0.99321294 -0.97405374 1.5863868
-0.98536342 -0.97210473 1.4400158
-0.96040028 -0.94845748 1.1707606
-0.94452071 -0.93309462 0.95509034
-0.93035656 -0.91973352 0.77135956
-0.92684543 -0.91657531 0.61497313
-0.91079205 -0.90100747 0.46651864
-0.90416473 -0.89506888 0.33302075
-0.89879125 -0.88974595 0.20648684
-0.97136116 -0.95561212 1.2947755
-0.94951296 -0.93476093 1.0537404
-0.93500149 -0.92078984 0.85675687
-0.92192799 -0.90885615 0.68592077
-0.92838705 -0.91553575 0.54294801
-0.91707653 -0.90469056 0.40141717
-0.89887995 -0.88673645 0.26832137
-0.89592975 -0.88412756 0.1444512
-1.183218 -1.1212751 10.362988
-1.2283831 -1.1749949 8.1958704
-1.2990086 -1.2546419 5.8206506
-1.1713694 -1.1368734 3.90516
-1.0918367 -1.0626251 2.8593898
-1.044021 -1.0181997 2.2144728
-1.0082062 -0.98428994 1.7635844
-1.0306076 -0.95560688 13.064924
-1.2726778 -1.2202737 6.8259096
-1.2261974 -1.1834733 4.6884885
-1.1284752 -1.0933192 3.3126378
-1.0751091 -1.0441426 2.5215867
-1.023667 -0.9955588 1.9655914
-0.99174947 -0.96585047 1.5790365
-0.98365563 -0.96366805 1.4330066
-0.96092618 -0.94237399 1.1676221
-0.94180226 -0.92393565 0.94960743
-0.93040019 -0.91337711 0.76904076
-0.92673153 -0.91008621 0.61310011
-0.91050947 -0.89446098 0.4651086
-0.90378052 -0.88846362 0.33208814
-0.89834023 -0.88311201 0.20603976
-0.96934927 -0.94699734 1.2881246
-0.94987971 -0.92861533 1.0507972
-0.93512785 -0.91450644 0.85422367
-0.92185169 -0.90245765 0.68382275
-0.9282034 -0.90898567 0.54130447
-0.91328448 -0.8946811 0.39907253
-0.90196973 -0.88359338 0.26832137
-0.89544231 -0.87749803 0.14424966
-1.1899545 -1.1198 10.387684
-1.2287854 -1.1671942 8.1713953
-1.2958385 -1.2428676 5.7872467
-1.1682969 -1.1259995 3.8821473
-1.0920948 -1.0554787 2.8506117
-1.0415043 -1.0086763 2.2020738
-1.0070331 -0.97630274 1.7559093
-1.0366827 -0.95453024 13.099724
-1.2741984 -1.2132238 6.8113914
-1.2228453 -1.1720221 4.6603312
-1.1275781 -1.0848458 3.2991343
-1.0712382 -1.033142 2.5045228
-1.0206332 -0.98569995 1.9536213
-0.99024069 -0.95766932 1.5716861
-0.98445725 -0.9577418 1.4295021
-0.95863277 -0.93358296 1.1613452
-0.94202644 -0.91772473 0.94686598
-0.9304108 -0.90703166 0.76672196
-0.92326462 -0.90037251 0.60935402
-0.91019237 -0.88792747 0.46369857
-0.8998462 -0.87844062 0.3302229
-0.89785385 -0.87649214 0.20559268
-0.96996903 -0.94100815 1.2847991
-0.95021516 -0.92247844 1.0478541
-0.93522179 -0.90823346 0.85169047
-0.92174202 -0.89607078 0.68172467
-0.92798531 -0.90244794 0.53966099
-0.91291791 -0.88809836 0.39790022
-0.90149903 -0.87698656 0.2676307
-0.8949194 -0.87088281 0.14404814
-1.1955595 -1.1172305 10.402501
-1.2306297 -1.1608021 8.1567087
-1.2926022 -1.231131 5.7538428
-1.1665744 -1.1165115 3.8637373
-1.0923163 -1.0483435 2.8418336
-1.0409622 -1.0011336 2.1938081
-1.0058166 -0.96833575 1.7482344
-1.042763 -0.95342273 13.134524
-1.2747718 -1.2053148 6.7920337
-1.2194285 -1.1606088 4.632175
-1.1266357 -1.0763919 3.2856307
-1.0654198 -1.0203773 2.4831932
-1.0197181 -0.97796005 1.9456413
-0.98868716 -0.94951057 1.5643358
-0.98266447 -0.94934404 1.422493
-0.95628971 -0.92481947 1.1550683
-0.93921357 -0.90861624 0.941383
-0.92720574 -0.89761627 0.76208436
-0.92307156 -0.89391917 0.607481
-0.90984082 -0.88140726 0.46228856
-0.89937997 -0.87187517 0.32929027
-0.89733225 -0.86988646 0.2051456
-0.96786982 -0.93243569 1.2781481
-0.95051944 -0.91635078 1.0449109
-0.93528348 -0.9019711 0.84915733
-0.92159891 -0.8896957 0.67962664
-0.92433619 -0.89264256 0.53637397
-0.90902072 -0.87815213 0.39555559
-0.90455478 -0.87383437 0.2676307
-0.89436138 -0.86428189 0.1438466
-1.2011611 -1.1146358 10.417319
-1.2302148 -1.1523235 8.1273375
-1.2903845 -1.2204578 5.7252111
-1.1647998 -1.1070493 3.8453271
-1.0907677 -1.0395677 2.8286664
-1.0383451 -0.99166334 2.1814091
-1.0022398 -0.95817429 1.7367218
-1.048848 -0.95228446 13.169325
-1.2762221 -1.1982766 6.7775149
-1.2159469 -1.1492335 4.6040182
-1.125648 -1.0679581 3.2721272
-1.0614153 -1.0094631 2.4661293
-1.0165793 -0.96816063 1.9336712
-0.98708874 -0.94137442 1.5569855
-0.98339885 -0.94343925 1.4189885
-0.95670468 -0.91877979 1.1519299
-0.9363485 -0.8995387 0.93590009
-0.92713988 -0.89130431 0.75976557
-0.92284489 -0.88747823 0.60560799
-0.90945482 -0.87490022 0.46087852
-0.89887893 -0.8653236 0.32835767
-0.89677554 -0.86329514 0.20469853
-0.96842074 -0.92647052 1.2748226
-0.9478727 -0.90743709 1.0390246
-0.93531281 -0.89571935 0.84662414
-0.92142266 -0.88333255 0.67752856
-0.9206298 -0.88287365 0.5330869
-0.90857291 -0.87160885 0.39438328
-0.90402597 -0.86724341 0.26694003
-0.89376813 -0.85769552 0.14364508
-1.2073303 -1.1125419 10.437076
-1.2327385 -1.1466354 8.117547
-1.2870198 -1.2087932 5.6918068
-1.1615527 -1.0962726 3.8223145
-1.0891711 -1.0308152 2.8154991
-1.0377165 -0.98416018 2.1731431
-1.0009291 -0.95025647 1.7290468
-1.0545418 -0.95075846 13.199154
-1.2776387 -1.1912432 6.7629967
-1.2136592 -1.1390778 4.5805545
-1.1246153 -1.0595442 3.2586234
-1.0573478 -0.9985894 2.4490657
-1.0155737 -0.96046537 1.925691
-0.98790711 -0.93559206 1.5533104
-0.98152184 -0.9350813 1.4119794
-0.95427233 -0.91006231 1.1456529
-0.93343168 -0.89049226 0.93041718
-0.92383701 -0.88194495 0.75512797
-0.92258441 -0.88104981 0.60373497
-0.90903455 -0.86840665 0.45946848
-0.89834327 -0.85878623 0.32742503
-0.89618379 -0.85671836 0.20425145
-0.96894175 -0.92051297 1.271497
-0.94810492 -0.90133792 1.0360813
-0.93530989 -0.88947845 0.844091
-0.92121321 -0.8769815 0.67543054
-0.92028636 -0.87639827 0.53144342
-0.90809047 -0.86507946 0.39321095
-0.89987659 -0.85725117 0.26555866
-0.8931399 -0.85112393 0.14344354
-1.2129265 -1.109894 10.451894
-1.2412218 -1.14647 8.1469183
-1.2835895 -1.197167 5.6584034
-1.1596701 -1.0868678 3.8039043
-1.0875268 -1.0220869 2.8023319
-1.0349997 -0.97474438 2.1607444
-0.9995755 -0.94235957 1.7213718
-1.0602378 -0.94920427 13.228983
-1.2790219 -1.1842146 6.7484789
-1.2113155 -1.128952 4.5570908
-1.1219479 -1.0496634 3.2406185
-1.0532174 -0.98775655 2.4320021
-1.0123307 -0.95072645 1.9137211
-0.98622751 -0.92749292 1.5459599
-0.98218912 -0.92919868 1.4084748
-0.95461708 -0.90404946 1.1425145
-0.9334988 -0.88435298 0.92767572
-0.92369509 -0.8756671 0.75280917
-0.92229027 -0.87463403 0.60186189
-0.90858012 -0.86192685 0.45805845
-0.89777285 -0.85226321 0.32649243
-0.89916885 -0.85358489 0.20425145
-0.96943307 -0.914563 1.2681715
-0.94536692 -0.89247358 1.030195
-0.93527484 -0.88324839 0.8415578
-0.92097074 -0.87064272 0.67333251
-0.91647792 -0.86669141 0.5281564
-0.90757358 -0.85856408 0.39203864
-0.89926594 -0.85070169 0.26486799
-0.89247662 -0.84456718 0.14324202
-1.2196693 -1.1082656 10.476591
-1.2474676 -1.144195 8.1616039
-1.2811892 -1.186594 5.6297712
-1.156306 -1.0761588 3.7808921
-1.085835 -1.0133824 2.7891645
-1.0342851 -0.96728164 2.1524785
-1.0005189 -0.93667418 1.7175343
-1.0655371 -0.94726777 13.25384
-1.2803715 -1.1771907 6.7339602
-1.2101824 -1.1200286 4.5383196
-1.1208202 -1.0412959 3.2271149
-1.050933 -0.97874218 2.419204
-1.0112356 -0.94307685 1.905741
-0.98698115 -0.92173088 1.5422847
-0.98022813 -0.92088109 1.4014658
-0.9549315 -0.89804524 1.139376
-0.93353444 -0.87822402 0.92493427
-0.92352057 -0.86940116 0.75049037
-0.92196274 -0.86823112 0.59998888
-0.90809149 -0.8554607 0.45664841
-0.90074235 -0.84912419 0.32649243
-0.89851928 -0.84702498 0.20380437
-0.96716976 -0.90606827 1.2615205
-0.94552749 -0.8864038 1.0272518
-0.93520772 -0.87702954 0.83902454
-0.92069536 -0.86431646 0.67123443
-0.91949767 -0.86348701 0.5281564
-0.90702236 -0.85206282 0.39086631
-0.89501143 -0.84077632 0.26348662
-0.89177859 -0.83802545 0.14304048
-1.2258382 -1.106083 10.496347
-1.2544655 -1.1425756 8.1811857
-1.277632 -1.175042 5.5963674
-1.1528811 -1.0654864 3.7578795
-1.0840955 -1.0047022 2.7759972
-1.0314691 -0.95792079 2.1400795
-0.99908727 -0.92881161 1.7098594
-1.0708357 -0.94530582 13.278698
-1.2816877 -1.170172 6.7194419
-1.2077314 -1.1099594 4.5148559
-1.1180477 -1.031473 3.20911
-1.0505134 -0.97152632 2.4106722
-1.0100995 -0.93544662 1.897761
-0.98770684 -0.91597492 1.5386096
-0.98082882 -0.91502118 1.3979613
-0.95521557 -0.89204991 1.1362376
-0.93353873 -0.8721056 0.92219275
-0.92331368 -0.86314708 0.74817157
-0.92498773 -0.86500758 0.59998888
-0.90756893 -0.84900862 0.4552384
-0.90011483 -0.84261787 0.32555979
-0.8978349 -0.84048009 0.20335729
-0.96759278 -0.90014356 1.258195
-0.94565731 -0.88034379 1.0243087
-0.9351086 -0.87082195 0.83649141
-0.92038691 -0.85800266 0.6691364
-0.9190526 -0.85705161 0.52651286
-0.9064368 -0.84557599 0.38969401
-0.89431965 -0.83426911 0.26279593
-0.89104593 -0.83149904 0.14283895
-1.2325855 -1.1043893 10.521043
-1.2584462 -1.1381897 8.1811857
-1.2762144 -1.1655424 5.5725074
-1.1508355 -1.0561721 3.7394691
-1.0840712 -0.9976685 2.7672191
-1.030669 -0.95049912 2.1318138
-0.99761295 -0.92097032 1.7021843
-1.0765347 -0.94366974 13.308527
-1.2829708 -1.1631585 6.7049236
-1.2064996 -1.1010841 4.4960847
-1.1168257 -1.0231527 3.1956065
-1.0481354 -0.96256167 2.3978746
-1.0089226 -0.92783582 1.889781
-0.98591036 -0.90792865 1.5312593
-0.97878438 -0.90674478 1.3909521
-0.95261556 -0.88341695 1.1299607
-0.93351173 -0.86599791 0.9194513
-0.92307448 -0.85690516 0.74585277
-0.92460448 -0.85861892 0.59811586
-0.90701234 -0.8425706 0.45382836
-0.90305054 -0.8394708 0.32555979
-0.89711565 -0.83395028 0.2029102
-0.96524364 -0.89169353 1.2515441
-0.94575649 -0.87429386 1.0213655
-0.93497765 -0.86462569 0.83395821
-0.91671515 -0.84861851 0.6649403
-0.92203873 -0.85383832 0.52651286
-0.90581715 -0.83910364 0.3885217
-0.89359337 -0.82777685 0.26210526
-0.89027846 -0.82498783 0.14263742
-1.2399167 -1.1031784 10.550679
-1.2616539 -1.1331097 8.1762905
-1.2736403 -1.1550643 5.5438757
-1.1501831 -1.048201 3.7256618
-1.0822431 -0.98903167 2.7540519
-1.0277545 -0.94119447 2.119415
-0.9984588 -0.9153164 1.6983467
-1.0822353 -0.94200534 13.338356
-1.2842205 -1.1561502 6.6904058
-1.2039418 -1.0910723 4.472621
-1.1139488 -1.0133888 3.1776016
-1.0476346 -0.95538253 2.3893425
-1.0077049 -0.92024463 1.8818009
-0.98657179 -0.90219396 1.5275841
-0.97931886 -0.90090829 1.3874475
-0.95283014 -0.87744975 1.1268222
-0.93345344 -0.85990113 0.91670984
-0.92280293 -0.85067534 0.74353397
-0.92759597 -0.8553862 0.59811586
-0.90642196 -0.83614683 0.45241833
-0.90236586 -0.83298153 0.32462719
-0.89636195 -0.82743585 0.20246312
-0.96559882 -0.88579482 1.2482185
-0.94582486 -0.86825395 1.0184224
-0.93481487 -0.85844123 0.83142501
-0.91633046 -0.8423419 0.66284221
-0.92501354 -0.85061461 0.52651286
-0.901586 -0.8293553 0.38617706
-0.89283282 -0.82130003 0.26141456
-0.89315271 -0.82187521 0.14263742
-1.2472543 -1.1019295 10.580315
-1.2656015 -1.1286988 8.1762905
-1.272118 -1.1456174 5.5200157
-1.1480404 -1.0389366 3.7072515
-1.0803678 -0.98041975 2.7408845
-1.0268697 -0.93381494 2.1111491
-0.99690723 -0.90751052 1.6906718
-1.0879374 -0.94031256 13.368185
-1.2854366 -1.1491474 6.6758871
-1.2026118 -1.0822462 4.4538498
-1.1126328 -1.0051165 3.1640978
-1.0451634 -0.94646829 2.3765447
-1.0064466 -0.91267341 1.8738209
-0.98469526 -0.89418668 1.5202339
-0.97719139 -0.89267403 1.3804384
-0.95301473 -0.87149179 1.1236838
-0.93336403 -0.85381526 0.91396838
-0.92249918 -0.84445798 0.74121517
-0.93057615 -0.85214305 0.59811586
-0.90579784 -0.82973748 0.45100829
-0.91251016 -0.83646512 0.32649243
-0.89557374 -0.8209368 0.20201604
-0.96592462 -0.87990451 1.2448931
-0.94586259 -0.86222416 1.0154792
-0.93143505 -0.84936368 0.82635868
-0.91256118 -0.83301878 0.65864611
-0.92448992 -0.84419626 0.52486938
-0.90088665 -0.82292503 0.38500473
-0.89203799 -0.81483877 0.26072389
-0.89232808 -0.81538242 0.14243589
-1.2557665 -1.1016676 10.619829
-1.2603853 -1.1161747 8.117547
-1.2705451 -1.1361952 5.4961557
-1.1458471 -1.0296999 3.6888416
-1.080225 -0.97343624 2.7321064
-1.0259458 -0.92645299 2.1028829
-0.99769115 -0.90187579 1.6868343
-1.0936407 -0.93859148 13.398015
-1.2866198 -1.1421503 6.6613688
-1.199948 -1.0722928 4.4303861
-1.1096523 -0.99541235 3.1460929
-1.044582 -0.93932658 2.3680129
-1.0051477 -0.90512216 1.8658408
-0.98277497 -0.88620359 1.5128835
-0.9750185 -0.88446552 1.3734293
-0.9502877 -0.8629266 1.1174068
-0.93324357 -0.84774059 0.91122693
-0.92216319 -0.83825308 0.73889637
-0.93354505 -0.84888959 0.59811586
-0.90514004 -0.82334274 0.44959825
-0.88999563 -0.81012827 0.31996405
-0.89475113 -0.81445348 0.20156896
-0.96345198 -0.87151802 1.238242
-0.94586986 -0.85620469 1.012536
-0.93119872 -0.8432138 0.82382548
-0.91210061 -0.8267802 0.65654802
-0.92393291 -0.83779216 0.52322584
-0.89655334 -0.81324404 0.38266009
-0.8948769 -0.81171995 0.26072389
-0.89146906 -0.80890554 0.14223436
-1.2601905 -1.0977877 10.624768
-1.255862 -1.1043731 8.0636997
-1.2678061 -1.125807 5.4675236
-1.1450611 -1.0217919 3.6750338
-1.0782617 -0.96486872 2.7189393
-1.024983 -0.91910893 2.0946171
-0.99844784 -0.89624673 1.6829967
-1.0993453 -0.93684202 13.427843
-1.2887127 -1.13599 6.65169
-1.1985202 -1.0635166 4.4116149
-1.1082432 -0.98718935 3.1325896
-1.0420183 -0.93046373 2.3552151
-1.0038084 -0.89759117 1.8578608
-0.98081106 -0.87824488 1.5055332
-0.97280037 -0.87628323 1.3664203
-0.95040333 -0.85699779 1.1142684
-0.93619704 -0.84447771 0.91122693
-0.92179525 -0.83206087 0.73657757
-0.93306166 -0.84251881 0.59624279
-0.90444857 -0.81696272 0.44818825
-0.88188553 -0.79713482 0.31716621
-0.89389426 -0.80798584 0.20112188
-0.96371061 -0.86565471 1.2349164
-0.94584674 -0.85019583 1.0095929
-0.92772526 -0.83419365 0.81875914
-0.91160774 -0.82055497 0.65445
-0.91983324 -0.82824236 0.51993883
-0.89577514 -0.80685657 0.38148779
-0.89034581 -0.80196285 0.25934252
-0.89057565 -0.80244458 0.14203283
-1.2651902 -1.0943986 10.634646
-1.2589424 -1.0993131 8.0588045
-1.26501 -1.1154519 5.4388919
-1.1442339 -1.0139021 3.6612263
-1.076252 -0.95632684 2.7057722
-1.0239818 -0.9117831 2.0863512
-0.99917752 -0.89062339 1.6791594
-1.1050509 -0.93506408 13.457672
-1.2898326 -1.1290014 6.6371717
-1.195751 -1.0536227 4.3881512
-1.1051596 -0.97754598 3.1145847
-1.0394055 -0.9216302 2.3424172
-1.0001755 -0.88807994 1.8458906
-0.97880352 -0.8703106 1.4981829
-0.97053689 -0.86812723 1.3594111
-0.95048922 -0.85107869 1.11113
-0.93602437 -0.83841485 0.90848547
-0.92139542 -0.82588154 0.73425877
-0.93254519 -0.83616185 0.59436977
-0.90729481 -0.81380063 0.44818825
-0.89928532 -0.80717641 0.32089669
-0.8967092 -0.80486071 0.20112188
-0.96115345 -0.85731483 1.2282655
-0.94277751 -0.841506 1.0037066
-0.92741585 -0.82807916 0.81622595
-0.91108257 -0.81434345 0.65235192
-0.91567814 -0.81873161 0.51665181
-0.89134014 -0.79724401 0.37914312
-0.88944864 -0.79554874 0.25865185
-0.88964808 -0.79599971 0.14183129
-1.2707711 -1.0914941 10.649464
-1.2504617 -1.0842409 7.9804807
-1.2621571 -1.10513 5.4102597
-1.1433657 -1.0060304 3.6474187
-1.0741959 -0.94781089 2.692605
-1.0208335 -0.90261149 2.0739524
-0.99747986 -0.88288164 1.6714844
-1.1103493 -0.93291497 13.482531
-1.2918682 -1.1228433 6.6274929
-1.1929275 -1.0437613 4.364687
-1.1036581 -0.96937275 3.1010809
-1.0367435 -0.91282624 2.3296194
-0.99874884 -0.88059789 1.8379105
-0.97929418 -0.864645 1.4945077
-0.97089487 -0.8623659 1.3559066
-0.9476366 -0.84258318 1.104853
-0.93582082 -0.83236355 0.90574402
-0.92096359 -0.81971514 0.73193997
-0.93199587 -0.82981879 0.59249669
-0.91012996 -0.81062865 0.44818825
-0.89579552 -0.7984122 0.2006748
-0.96134508 -0.85147905 1.2249401
-0.94268417 -0.83552897 1.0007634
-0.92707521 -0.82197708 0.81369281
-0.91052514 -0.80814552 0.65025389
-0.91146809 -0.80926001 0.51336479
-0.89048344 -0.79090005 0.37797081
-0.88851768 -0.78915071 0.25796115
-0.88868648 -0.78957117 0.14162977
-1.275756 -1.0880599 10.659343
-1.2465219 -1.0732272 7.931529
-1.2592478 -1.0948417 5.381628
-1.1424565 -0.99817729 3.6336112
-1.0720932 -0.9393208 2.6794376
-1.0197486 -0.89532959 2.0656865
-0.99814796 -0.87727851 1.6676468
-1.1160556 -0.93108165 13.512359
-1.2938764 -1.1166846 6.6178141
-1.1900498 -1.0339323 4.3412237
-1.1021129 -0.96122199 3.0875771
-1.0359966 -0.90576881 2.3210876
-0.99728215 -0.87313664 1.8299305
-0.97720784 -0.85675162 1.4871573
-0.96854985 -0.85425383 1.3488976
-0.94765413 -0.83669412 1.1017146
-0.93558657 -0.82632393 0.9030025
-0.92050016 -0.81356192 0.72962117
-0.92794049 -0.82041931 0.58875066
-0.91295403 -0.80744672 0.44818825
-0.89484793 -0.79197997 0.20022772
-0.95870399 -0.84318668 1.218289
-0.94256079 -0.82956296 0.99782026
-0.92670321 -0.81588739 0.81115961
-0.90993565 -0.80196148 0.64815581
-0.90720314 -0.79982781 0.51007777
-0.89323878 -0.78778684 0.37797081
-0.88755286 -0.78276885 0.25727049
-0.88769078 -0.78315908 0.14142823
-1.2813255 -1.0851061 10.674161
-1.2409723 -1.0609307 7.8727856
-1.2551521 -1.0836118 5.3482246
-1.1385548 -0.98778236 3.6105986
-1.0699446 -0.93085712 2.6662703
-1.0186253 -0.88806623 2.0574207
-0.99637419 -0.86957407 1.6599717
-1.1213518 -0.92887974 13.537216
-1.2949029 -1.1097077 6.6032958
-1.1871181 -1.0241363 4.3177595
-1.1005244 -0.95309395 3.0740736
-1.035213 -0.89872772 2.3125558
-0.99577564 -0.86569643 1.8219506
-0.97763556 -0.85110945 1.4834822
-0.96884298 -0.84851819 1.3453929
-0.94764203 -0.83081514 1.0985761
-0.93532145 -0.82029605 0.90026098
-0.9200049 -0.8074218 0.72730237
-0.92383087 -0.8110581 0.58500457
-0.9121626 -0.80108964 0.44677821
-0.89292926 -0.78474408 0.31716621
-0.89386624 -0.78556412 0.19978066
-0.95882905 -0.83737904 1.2149636
-0.9393636 -0.82094824 0.99193394
-0.92954552 -0.8126477 0.81115961
-0.90931416 -0.79579151 0.64605778
-0.90643644 -0.79354566 0.5084343
-0.89232653 -0.78146172 0.37679848
-0.88655442 -0.77640343 0.25657982
-0.88666129 -0.77676362 0.14122671
-1.2868897 -1.0821267 10.688978
-1.2369047 -1.0500041 7.8238339
-1.2509933 -1.0724239 5.3148203
-1.1345948 -0.97742707 3.5875859
-1.0677502 -0.92242002 2.6531031
-1.0153362 -0.8789801 2.0450218
-0.99213648 -0.85979366 1.6484592
-1.127058 -0.92699081 13.567045
-1.2958965 -1.1027374 6.5887775
-1.1841325 -1.0143734 4.2942958
-1.0988926 -0.94498867 3.06057
-1.0324175 -0.8900004 2.299758
-0.99422938 -0.85827738 1.8139704
-0.97803569 -0.84547466 1.479807
-0.96641684 -0.84045088 1.3383839
-0.94466478 -0.82239097 1.0922991
-0.93187237 -0.81153405 0.89477807
-0.91947806 -0.80129522 0.72498357
-0.9196673 -0.80173576 0.58125854
-0.91495341 -0.79790068 0.44677821
-0.90306538 -0.78808212 0.31903145
-0.89285082 -0.77916479 0.19933358
-0.95610434 -0.8291347 1.2083125
-0.93917066 -0.81501508 0.98899078
-0.9291212 -0.80657214 0.80862641
-0.90866065 -0.78963566 0.6439597
-0.90563709 -0.78727883 0.50679076
-0.89138114 -0.77515262 0.37562618
-0.88552237 -0.77005446 0.25588912
-0.88936722 -0.77366388 0.14122671
-1.2924486 -1.0791218 10.703796
-1.2319976 -1.0384628 7.7699862
-1.2479086 -1.062246 5.2861886
-1.1305764 -0.96711147 3.5645733
-1.0655097 -0.91400945 2.6399357
-1.01413 -0.87176192 2.0367558
-0.9902724 -0.85214406 1.6407841
-1.1323519 -0.92473632 13.591903
-1.2968572 -1.0957737 6.5742593
-1.1824079 -1.005762 4.2755246
-1.0972178 -0.93690658 3.0470665
-1.0315552 -0.88299954 2.2912261
-0.9949314 -0.85284066 1.8099804
-0.97840846 -0.83984751 1.4761319
-0.96664542 -0.83474165 1.3348794
-0.94458508 -0.81654304 1.0891607
-0.93153644 -0.80554122 0.89203662
-0.91891968 -0.79518211 0.72266477
-0.91895515 -0.79548657 0.57938552
-0.91410655 -0.79156184 0.44536817
-0.89467365 -0.77527428 0.31623358
-0.8918016 -0.77278215 0.1988865
-0.95616335 -0.82335603 1.204987
-0.93894786 -0.80909342 0.98604763
-0.9286657 -0.80050945 0.80609328
-0.90797532 -0.78349406 0.64186168
-0.90480506 -0.7810272 0.50514728
-0.89408141 -0.77203649 0.37562618
-0.88445675 -0.76372236 0.25519845
-0.8882817 -0.76728892 0.14102517
-1.2986007 -1.076587 10.723554
-1.2285869 -1.0282754 7.7259288
-1.2447681 -1.0521027 5.2575564
-1.1279888 -0.9581005 3.5461633
-1.0632237 -0.905626 2.6267686
-1.0128859 -0.86456305 2.0284901
-0.98836708 -0.84451807 1.6331092
-1.1380578 -0.9227916 13.621732
-1.2968221 -1.088009 6.5549016
-1.1793191 -0.99606144 4.2520609
-1.0954999 -0.92884761 3.0335627
-1.0306565 -0.87601542 2.2826943
-0.9933129 -0.8454566 1.8020003
-0.97875398 -0.8342281 1.4724567
-0.96413863 -0.8267197 1.3278702
-0.94152248 -0.80817074 1.0828838
-0.93117023 -0.79956079 0.88929516
-0.91832995 -0.78908271 0.72034597
-0.91469502 -0.78623033 0.57563943
-0.91322666 -0.78523862 0.44395813
-0.89737439 -0.77214652 0.31623358
-0.89071876 -0.76641637 0.19843942
-0.95619363 -0.81758696 1.2016616
-0.93869507 -0.8031832 0.98310447
-0.92817926 -0.79445988 0.80356008
-0.90725821 -0.77736688 0.63976365
-0.90394038 -0.774791 0.5035038
-0.89308101 -0.76574707 0.37445387
-0.88335788 -0.75740701 0.25450778
-0.88716245 -0.76093096 0.14082365
-1.3053508 -1.0745159 10.74825
-1.2251201 -1.0181245 7.6818724
-1.2427157 -1.0429537 5.2336965
-1.1253523 -0.94911957 3.5277531
-1.0608922 -0.89726955 2.6136014
-1.0116041 -0.85738343 2.0202241
-0.98642075 -0.83691591 1.6254343
-1.1437639 -0.92081845 13.651561
-1.2967486 -1.0802579 6.5355439
-1.1774994 -0.98750365 4.2332897
-1.0954046 -0.92221409 3.0245602
-1.0297217 -0.86904842 2.2741623
-0.99165499 -0.83809435 1.7940203
-0.97648418 -0.82642645 1.4651064
-0.96430308 -0.82103741 1.3243657
-0.94137543 -0.80235451 1.0797453
-0.93077362 -0.79359269 0.8865537
-0.91770875 -0.78299719 0.71802717
-0.91390765 -0.78002304 0.57376641
-0.91231394 -0.77893132 0.4425481
-0.89632952 -0.76581848 0.31530097
-0.88960242 -0.76006758 0.19799234
-0.95334899 -0.80941141 1.1950105
-0.93841249 -0.7972846 0.98016131
-0.92766207 -0.78842348 0.80102688
-0.9065094 -0.77125424 0.63766557
-0.90304333 -0.76857042 0.50186026
-0.89574856 -0.76262498 0.37445387
-0.88222575 -0.75110871 0.25381708
-0.88600975 -0.75459021 0.14062211
-1.312102 -1.0724109 10.772945
-1.2215976 -1.0080104 7.637815
-1.2406147 -1.033832 5.2098365
-1.1241648 -0.94142288 3.5139456
-1.0585154 -0.88894063 2.6004343
-1.0102844 -0.85022348 2.0119581
-0.98688465 -0.83140254 1.6215967
-1.1490536 -0.91848385 13.676418
-1.2976058 -1.0733217 6.5210257
-1.1756346 -0.97897083 4.2145185
-1.0936062 -0.91419649 3.0110567
-1.0267519 -0.86042368 2.2613645
-0.99226612 -0.83269078 1.7900304
-0.97417206 -0.8186509 1.457756
-0.96171629 -0.81306171 1.3173567
-0.94119918 -0.7965492 1.0766069
-0.93034661 -0.78763705 0.88381225
-0.91367638 -0.77406222 0.71338952
-0.91308814 -0.77383089 0.57189339
-0.91136819 -0.77263993 0.44113809
-0.89525145 -0.75950736 0.31436834
-0.89225012 -0.75695771 0.19799234
-0.95331383 -0.80367213 1.1916851
-0.93810034 -0.79139781 0.97721815
-0.92381954 -0.77962029 0.79596055
-0.905729 -0.76515645 0.63556755
-0.9021138 -0.76236558 0.50021678
-0.89840513 -0.75949359 0.37445387
-0.88106048 -0.74482763 0.25312641
-0.88482368 -0.74826699 0.14042059
-1.319458 -1.0707614 10.802582
-1.2180194 -0.99793345 7.5937581
-1.2396152 -1.0256892 5.1907487
-1.121435 -0.93249708 3.4955354
-1.0560935 -0.8806392 2.5872669
-1.0089272 -0.84308308 2.0036924
-0.98486346 -0.8238396 1.6139216
-1.1543409 -0.91612357 13.701276
-1.2974586 -1.065595 6.501668
-1.1737247 -0.9704631 4.1957479
-1.091765 -0.90620267 2.9975529
-1.0257393 -0.8534984 2.2528327
-0.99053669 -0.82536441 1.7820503
-0.97181755 -0.81090164 1.4504057
-0.96181703 -0.8074069 1.3138521
-0.94099408 -0.79075497 1.0734684
-0.92988962 -0.78169423 0.88107073
-0.91298288 -0.76801658 0.71107078
-0.91223657 -0.76765412 0.57002032
-0.91038984 -0.76636475 0.43972805
-0.89414024 -0.75321293 0.31343573
-0.89107823 -0.7506302 0.19754526
-0.95325017 -0.797943 1.1883595
-0.93775845 -0.78552294 0.97427499
-0.92323107 -0.77362216 0.79342741
-0.90491724 -0.75907356 0.63346946
-0.90476942 -0.7592119 0.50021678
-0.90105081 -0.7563529 0.37445387
-0.87986213 -0.73856384 0.25243574
-0.88360417 -0.74196118 0.14021905
-1.3268183 -1.0690734 10.832217
-1.2151757 -0.98853612 7.5545964
-1.2374207 -1.0166186 5.1668892
-1.1201632 -0.9248457 3.4817278
-1.0536265 -0.87236553 2.5740998
-1.0075326 -0.83596265 1.9954264
-0.98526752 -0.818349 1.6100842
-1.1596258 -0.91373765 13.726133
-1.2982476 -1.0586767 6.4871497
-1.1717695 -0.96198064 4.1769767
-1.0898817 -0.89823306 2.9840493
-1.024691 -0.8465907 2.2443008
-0.98876822 -0.8180604 1.7740703
-0.96942091 -0.80317891 1.4430554
-0.95915049 -0.79947805 1.306843
-0.94075984 -0.78497183 1.07033
-0.9261921 -0.77308482 0.87558782
-0.91225827 -0.7619853 0.70875198
-0.91135311 -0.76149261 0.5681473
-0.90937871 -0.76010579 0.43831801
-0.89299601 -0.74693555 0.3125031
-0.88987303 -0.74432009 0.19709818
-0.95028663 -0.78983766 1.1817086
-0.93427944 -0.77707559 0.96838868
-0.92261207 -0.76763773 0.79089421
-0.90756142 -0.75591022 0.63346946
-0.90378612 -0.75302637 0.49857324
-0.90368545 -0.75320309 0.37445387
-0.88243479 -0.73548806 0.25243574
-0.88618881 -0.73887229 0.14021905
-1.3341829 -1.0673472 10.861853
-1.2114891 -0.97853124 7.5105391
-1.2363347 -1.0085193 5.1478009
-1.118852 -0.91721469 3.4679203
-1.0529648 -0.8656407 2.5653214
-1.0061004 -0.82886225 1.9871606
-0.9831723 -0.81082636 1.6024091
-1.1649078 -0.91132581 13.750991
-1.2990042 -1.0517658 6.472631
-1.1697695 -0.9535237 4.1582055
-1.0879558 -0.89028746 2.9705458
-1.023607 -0.8397007 2.235769
-0.98696083 -0.81077874 1.7660903
-0.96698225 -0.79548275 1.4357051
-0.95918787 -0.79385138 1.3033384
-0.94049686 -0.77920014 1.0671915
-0.92566556 -0.76717895 0.87284636
-0.91150272 -0.75596845 0.70643318
-0.9104377 -0.75534672 0.56627429
-0.90833485 -0.75386316 0.43690795
-0.89181888 -0.74067539 0.3115705
-0.88863474 -0.73802763 0.1966511
-0.95015806 -0.78413922 1.1783831
-0.93386954 -0.77123582 0.96544552
-0.92196256 -0.76166701 0.78836101
-0.90669703 -0.74984521 0.63137144
-0.90277076 -0.74685705 0.49692973
-0.90256453 -0.74694514 0.37328154
-0.88118172 -0.72924608 0.25174505
-0.88491422 -0.73258853 0.14001752
-1.3409431 -1.0650994 10.886549
-1.2085422 -0.96920121 7.4713774
-1.2352074 -1.0004399 5.1287131
-1.117501 -0.90960395 3.4541125
-1.0504137 -0.85741693 2.5521543
-1.0046312 -0.82178211 1.9788946
-0.98351669 -0.80535895 1.5985717
-1.1697663 -0.90856147 13.770878
-1.3007082 -1.0456502 6.4629526
-1.167725 -0.94509244 4.1394343
-1.0842983 -0.88099378 2.9525409
-1.0224874 -0.8328287 2.2272372
-0.98511475 -0.80351973 1.7581102
-0.9645018 -0.78781348 1.4283547
-0.95644242 -0.78597021 1.2963293
-0.9402051 -0.77343976 1.0640531
-0.92510915 -0.7612862 0.87010491
-0.91071641 -0.7499662 0.70411438
-0.90949059 -0.74921656 0.56440127
-0.90725881 -0.74763733 0.43549791
-0.88681918 -0.73130745 0.30970526
-0.88736343 -0.73175293 0.19620402
-0.95000136 -0.77845138 1.1750575
-0.93343037 -0.7654084 0.96250236
-0.92128265 -0.75571018 0.78582788
-0.90580136 -0.74379557 0.62927336
-0.90172321 -0.74070388 0.49528623
-0.90141088 -0.74070412 0.37210923
-0.88372189 -0.72616571 0.25174505
-0.88746595 -0.72949511 0.14001752
-1.3495343 -1.0642604 10.926064
-1.2063415 -0.96053779 7.4371109
-1.2328756 -0.99144548 5.1048532
-1.1161107 -0.9020139 3.4403052
-1.0496788 -0.85072923 2.5433762
-1.0053091 -0.81649631 1.9747616
-0.98134786 -0.79787713 1.5908966
-1.1746194 -0.90577412 13.790763
-1.3014029 -1.0387515 6.4484344
-1.1656358 -0.93668717 4.1206636
-1.0822836 -0.87310332 2.9390371
-1.0213324 -0.8259747 2.2187052
-0.98557186 -0.79817986 1.7541201
-0.96461266 -0.78230661 1.4246795
-0.95641685 -0.78037238 1.2928247
-0.9398846 -0.76769096 1.0609146
-0.9245227 -0.75540668 0.86736345
-0.91332871 -0.7467826 0.70411438
-0.90851188 -0.74310231 0.56252825
-0.90615028 -0.74142802 0.43408787
-0.88556576 -0.72509539 0.30877262
-0.88605922 -0.72549605 0.19575694
-0.94981658 -0.77277422 1.1717321
-0.93296182 -0.75959355 0.95955914
-0.92057246 -0.7497676 0.78329468
-0.90487456 -0.73776138 0.62717533
-0.90064377 -0.73456717 0.49364269
-0.90022475 -0.73448044 0.3709369
-0.88625127 -0.72307652 0.25174505
-0.89000696 -0.72639292 0.14001752
-1.3544647 -1.0605009 10.935941
-1.2032964 -0.95127034 7.3979492
-1.2316625 -0.98341084 5.0857654
-1.1146809 -0.8944447 3.4264975
-1.047044 -0.84255594 2.5302088
-1.0037719 -0.80944937 1.9664958
-0.97913873 -0.79042029 1.5832217
-1.1798908 -0.90328801 13.81562
-1.302065 -1.0318605 6.4339156
-1.1635022 -0.92830813 4.1018925
-1.0802273 -0.86523759 2.9255335
-1.0201421 -0.81913894 2.2101734
-0.98365533 -0.79095846 1.74614
-0.96469688 -0.77680856 1.4210044
-0.959135 -0.77702904 1.2928247
-0.93953544 -0.76195389 1.0577762
-0.92390668 -0.74954063 0.864622
-0.91249067 -0.74079794 0.70179558
-0.90750152 -0.73700398 0.56065518
-0.90128636 -0.73221099 0.43126783
-0.88427985 -0.71890104 0.30784002
-0.88472211 -0.7192573 0.19530986
-0.94960374 -0.76710784 1.1684066
-0.93246418 -0.75379127 0.95661598
-0.91983199 -0.74383903 0.78076148
-0.90391672 -0.73174268 0.62507725
-0.90320241 -0.73141885 0.49364269
-0.89900619 -0.72827399 0.3697646
-0.88876987 -0.71997851 0.25174505
-0.88865572 -0.72013628 0.13981599
-1.3593855 -1.05672 10.94582
-1.2002012 -0.94203573 7.3587871
-1.2304084 -0.97539675 5.0666771
-1.111684 -0.8856793 3.4080875
-1.0462364 -0.83590633 2.5214307
-1.0021977 -0.80242336 1.9582298
-0.97688961 -0.78298873 1.5755466
-1.1855836 -0.90109861 13.845449
-1.3026953 -1.0249778 6.4193978
-1.1613245 -0.91995537 4.0831213
-1.0764252 -0.85604215 2.9075289
-1.0209557 -0.81394738 2.2059073
-0.98405546 -0.78564018 1.7421501
-0.9647547 -0.77131957 1.4173292
-0.95906258 -0.77144122 1.2893202
-0.93915766 -0.75622857 1.0546377
-0.92326105 -0.74368805 0.86188054
-0.91507095 -0.73760831 0.70179558
-0.90645981 -0.73092175 0.55878216
-0.90010291 -0.72604877 0.42985779
-0.87913913 -0.70963919 0.30597478
-0.88335234 -0.71303672 0.19486278
-0.94645023 -0.75911635 1.1617556
-0.9319374 -0.74800175 0.95367283
-0.91906148 -0.73792487 0.77822834
-0.90292788 -0.72573972 0.62297922
-0.90206993 -0.7253027 0.49199918
-0.89775532 -0.72208506 0.36859229
-0.88741887 -0.71376812 0.25105438
-0.891164 -0.71702999 0.13981599
-1.3636811 -1.0524431 10.950759
-1.1978595 -0.9334603 7.3245206
-1.2279403 -0.96648037 5.0428171
-1.1101719 -0.87815785 3.39428
-1.045395 -0.82927257 2.5126526
-1.0027897 -0.79716915 1.9540969
-0.9771086 -0.77757818 1.5717092
-1.1912754 -0.8988803 13.875278
-1.3032933 -1.0181034 6.4048796
-1.1591026 -0.9116292 4.0643501
-1.0759895 -0.84958166 2.8985264
-1.0197006 -0.80714142 2.1973755
-0.98206896 -0.77845705 1.7341701
-0.96478581 -0.76583958 1.4136541
-0.95896286 -0.76586336 1.2858157
-0.93875152 -0.75051528 1.0514992
-0.92258573 -0.73784924 0.85913903
-0.91418165 -0.73164177 0.69947678
-0.90900564 -0.72775316 0.55878216
-0.89514327 -0.71690506 0.42703772
-0.8777777 -0.70349407 0.30504215
-0.88194996 -0.70683455 0.1944157
-0.94617325 -0.7534821 1.15843
-0.9313817 -0.74222523 0.95072967
-0.91826081 -0.73202521 0.77569515
-0.90190834 -0.71975267 0.6208812
-0.90090567 -0.71920335 0.49035567
-0.89267415 -0.71288079 0.36624765
-0.88603532 -0.70757592 0.25036371
-0.88975817 -0.71079665 0.13961446
-1.3679633 -1.048149 10.955698
-1.1930565 -0.92304391 7.2755685
-1.2266015 -0.95851213 5.0237293
-1.1070842 -0.86945099 3.3758698
-1.0426385 -0.82117319 2.4994855
-1.0011483 -0.79017729 1.9458311
-0.97478688 -0.77018869 1.5640341
-1.1973928 -0.89695269 13.910079
-1.3038591 -1.0112369 6.3903608
-1.156837 -0.90332991 4.0455794
-1.0738086 -0.84179175 2.8850226
-1.0184106 -0.80035442 2.1888437
-0.98241216 -0.77316076 1.7301799
-0.96479052 -0.76036876 1.4099789
-0.9588359 -0.76029563 1.2823112
-0.93831682 -0.74481398 1.0483608
-0.92188102 -0.73202413 0.85639757
-0.91326171 -0.72569042 0.69715798
-0.9079113 -0.72169101 0.55690914
-0.89388549 -0.7107904 0.42562771
-0.88022798 -0.7004258 0.30504215
-0.88051504 -0.70065093 0.19396862
-0.94586873 -0.74785912 1.1551045
-0.93079698 -0.73646164 0.94778651
-0.91743022 -0.72614008 0.77316189
-0.90441519 -0.7166 0.6208812
-0.89971 -0.71312112 0.48871216
-0.89134842 -0.70674062 0.36507532
-0.88461953 -0.70140213 0.24967301
-0.88831961 -0.70458186 0.13941292
-1.3722322 -1.0438379 10.960638
-1.1954637 -0.91825354 7.2706733
-1.2240424 -0.94965023 4.9998693
-1.1039492 -0.86077648 3.3574595
-1.0417252 -0.81457841 2.4907072
-0.99947041 -0.7832067 1.9375652
-0.97494745 -0.76480323 1.5601966
-1.2030834 -0.89467531 13.939908
-1.3043931 -1.0043793 6.3758426
-1.1531634 -0.89400017 4.0221152
-1.0733043 -0.8353644 2.8760202
-1.0150293 -0.79198194 2.1760459
-0.98273051 -0.76787156 1.7261899
-0.96476883 -0.75490743 1.4063038
-0.95868176 -0.75473815 1.2788066
-0.93785393 -0.73912495 1.0452224
-0.92114693 -0.7262131 0.85365611
-0.91231143 -0.7197544 0.69483918
-0.90678579 -0.71564549 0.55503613
-0.89636117 -0.70766586 0.42562771
-0.87881309 -0.69430375 0.30410954
-0.87904781 -0.6944859 0.19352154
-0.94259936 -0.73994195 1.1484535
-0.93336201 -0.73320806 0.94778651
-0.91318017 -0.71760625 0.76809555
-0.90334404 -0.71063262 0.61878312
-0.89848274 -0.70705593 0.48706865
-0.88617146 -0.69761187 0.36273071
-0.88317138 -0.69524688 0.24898234
-0.88684869 -0.69838589 0.1392114
-1.3764876 -1.0395097 10.965577
-1.1962324 -0.9122231 7.2559876
-1.2214366 -0.94081795 4.9760094
-1.1023124 -0.85333043 3.3436522
-1.0407784 -0.80800003 2.4819291
-0.99997693 -0.77798516 1.9334321
-0.97508228 -0.759426 1.5563592
-1.2087729 -0.89236933 13.969737
-1.3058937 -0.9982934 6.3661642
-1.149439 -0.88470721 3.9986515
-1.0727683 -0.82895088 2.8670177
-1.0136639 -0.78523982 2.1675138
-0.98064303 -0.7607429 1.7182097
-0.96472079 -0.74945539 1.4026285
-0.95850062 -0.74919105 1.2753021
-0.93736273 -0.73344827 1.0420839
-0.92038345 -0.72041601 0.85091466
-0.91133088 -0.71383399 0.69252038
-0.90927833 -0.71247584 0.55503613
-0.89882594 -0.70453262 0.42562771
-0.88123131 -0.69123191 0.30410954
-0.87754828 -0.68833971 0.19307446
-0.94223148 -0.73435211 1.145128
-0.93272841 -0.72745985 0.94484335
-0.9122808 -0.71176273 0.76556236
-0.90224218 -0.70468146 0.61668509
-0.89722431 -0.70100808 0.48542514
-0.88477147 -0.69152111 0.36155838
-0.8816911 -0.68911034 0.24829166
-0.88534534 -0.69220877 0.13900986
-1.3813512 -1.0356305 10.975455
-1.1969738 -0.9061985 7.2413015
-1.21997 -0.93292201 4.9569216
-1.1006371 -0.84590632 3.3298445
-1.0397984 -0.80143809 2.473151
-1.0004596 -0.77276987 1.9292994
-0.97265583 -0.75209665 1.5486841
-1.2140306 -0.88971925 13.994595
-1.3063663 -0.99144948 6.3516455
-1.1456639 -0.87545127 3.9751875
-1.0722008 -0.82255125 2.8580153
-1.0122639 -0.77851713 2.158982
-0.98090523 -0.75547671 1.7142198
-0.96464634 -0.74401289 1.3989534
-0.95547497 -0.74146813 1.268293
-0.9368434 -0.72778398 1.0389454
-0.91959083 -0.71463311 0.8481732
-0.91032016 -0.70792907 0.69020158
-0.90810066 -0.706451 0.55316305
-0.90127975 -0.70139086 0.42562771
-0.87976325 -0.68513352 0.30317691
-0.87601662 -0.68221253 0.19262739
-0.94183606 -0.72877371 1.1418025
-0.93206602 -0.72172493 0.94190019
-0.91135162 -0.70593411 0.76302922
-0.90110981 -0.69874668 0.61458701
-0.89966583 -0.69787198 0.48542514
-0.88333994 -0.68544871 0.36038607
-0.88017881 -0.68299258 0.24760097
-0.88380975 -0.68605071 0.13880834
-1.3855813 -1.0312661 10.980394
-1.1976876 -0.9001798 7.2266159
-1.2172741 -0.9241454 4.9330616
-1.1004766 -0.83968925 3.3206394
-1.0387853 -0.79489303 2.4643729
-1.0009178 -0.76756054 1.9251662
-0.97273266 -0.74674523 1.5448467
-1.2197158 -0.88735694 14.024424
-1.3068073 -0.98461455 6.3371272
-1.1418383 -0.86623257 3.9517241
-1.0716016 -0.81616586 2.8490129
-1.0108293 -0.77181363 2.1504502
-0.98114252 -0.7502178 1.7102298
-0.96454591 -0.73858023 1.3952782
-0.9552322 -0.73595202 1.2647884
-0.93629581 -0.72213227 1.035807
-0.91876918 -0.70886469 0.84543175
-0.90927935 -0.70204008 0.68788278
-0.91056108 -0.70327687 0.55316305
-0.90372252 -0.69824058 0.42562771
-0.88214946 -0.68205839 0.30317691
-0.87839264 -0.67915046 0.19262739
-0.94437414 -0.72548169 1.1418025
-0.93137503 -0.7160036 0.93895704
-0.91381025 -0.70274866 0.76302922
-0.89994711 -0.69282842 0.61248899
-0.89835507 -0.69184607 0.48378164
-0.88187665 -0.67939478 0.35921374
-0.87863457 -0.67689389 0.2469103
-0.88619906 -0.6829614 0.13880834
-1.3897976 -1.0268849 10.985333
-1.198374 -0.8941673 7.2119303
-1.215724 -0.91629732 4.9139733
-1.1002862 -0.83348364 3.3114345
-1.0377394 -0.78836483 2.4555948
-1.001352 -0.76235759 1.9210334
-0.97023469 -0.73945957 1.5371716
-1.2253993 -0.88496572 14.054253
-1.3062097 -0.97703576 6.3177695
-1.1393409 -0.85808933 3.9329526
-1.0727074 -0.8111074 2.8445115
-1.0114388 -0.76670521 2.1461844
-0.98135525 -0.74496675 1.7062398
-0.96172023 -0.73110563 1.3879279
-0.95496261 -0.73044652 1.2612839
-0.93572038 -0.71649337 1.0326686
-0.91791832 -0.70311058 0.84269029
-0.90820861 -0.69616693 0.68556398
-0.9093315 -0.69727319 0.55129004
-0.90615433 -0.69508171 0.42562771
-0.88062823 -0.67598385 0.30224431
-0.87680763 -0.6730479 0.19218032
-0.94393194 -0.71991658 1.138477
-0.9306556 -0.71029603 0.93601388
-0.91283143 -0.69693869 0.76049602
-0.89875406 -0.68692684 0.6103909
-0.89701319 -0.68583781 0.48213813
-0.88038194 -0.67335933 0.35804144
-0.87705863 -0.67081434 0.24621962
-0.88460982 -0.67682803 0.1386068
-1.3940003 -1.0224867 10.990273
-1.199033 -0.88816082 7.1972442
-1.2141341 -0.90847141 4.8948855
-1.1016275 -0.82846379 3.3068321
-1.0366606 -0.78185362 2.4468162
-0.99951684 -0.75546426 1.9127675
-0.97025394 -0.7341345 1.5333341
-1.2306476 -0.88223523 14.07911
-1.3065845 -0.97022253 6.3032517
-1.1354184 -0.84894091 3.9094892
-1.0720501 -0.80474448 2.8355093
-1.0099412 -0.76003379 2.1376524
-0.97913671 -0.73790973 1.6982597
-0.96156043 -0.72570205 1.3842528
-0.95182604 -0.72279537 1.2542748
-0.93511701 -0.71086729 1.02953
-0.91703868 -0.69737124 0.83994877
-0.91063309 -0.69299251 0.68556398
-0.9080711 -0.69128668 0.54941696
-0.90857512 -0.69191444 0.42562771
-0.87907547 -0.66992831 0.30131167
-0.87915164 -0.66998315 0.19218032
-0.94346237 -0.71436346 1.1351515
-0.92990762 -0.70460212 0.93307072
-0.91525865 -0.69374812 0.76049602
-0.90114641 -0.68378538 0.6103909
-0.89564043 -0.67984754 0.48049462
-0.88272709 -0.67028219 0.35804144
-0.87545091 -0.66475403 0.24552894
-0.886967 -0.67373604 0.1386068
-1.3988173 -1.0185291 11.000152
-1.1996648 -0.88216084 7.182559
-1.2125044 -0.90066779 4.8757977
-1.1013814 -0.82227594 3.297627
-1.0355488 -0.77535951 2.4380381
-0.99989688 -0.75028187 1.9086344
-0.97024769 -0.72881824 1.5294967
-1.2367604 -0.88009661 14.113911
-1.3059158 -0.96267295 6.2838941
-1.1342175 -0.84188712 3.8954105
-1.0713613 -0.79839599 2.8265069
-1.0084091 -0.75338215 2.1291206
-0.97929364 -0.73268235 1.6942697
-0.95866126 -0.71827573 1.3769025
-0.95149547 -0.71732175 1.2507702
-0.93448585 -0.70525414 1.0263916
-0.91613007 -0.69164652 0.83720732
-0.9095121 -0.68713939 0.68324518
-0.90308166 -0.68252254 0.54567093
-0.90715832 -0.68584579 0.42421767
-0.87749118 -0.66389191 0.30037907
-0.88148499 -0.66691023 0.19218032
-0.94296551 -0.70882249 1.131826
-0.92913121 -0.6989221 0.93012756
-0.91423011 -0.68795711 0.75796282
-0.89990282 -0.67790502 0.60829288
-0.89423686 -0.67387515 0.47885111
-0.88118005 -0.66427094 0.35686913
-0.8738116 -0.65871316 0.24483825
-0.88931346 -0.67063588 0.1386068
-1.402994 -1.0140952 11.005092
-1.2010919 -0.87676746 7.1727686
-1.210835 -0.8928867 4.85671
-1.1011057 -0.81610006 3.2884219
-1.0344045 -0.76888275 2.42926
-0.99799615 -0.74342507 1.9003686
-0.97021633 -0.7235111 1.5256591
-1.2424378 -0.87761873 14.14374
-1.3052105 -0.95513982 6.2645364
-1.127424 -0.83075792 3.8625612
-1.0706414 -0.79206222 2.8175044
-1.008938 -0.74830401 2.1248546
-0.97700709 -0.7256664 1.6862897
-0.95844251 -0.71290189 1.3732272
-0.95113844 -0.71185935 1.2472657
-0.93382686 -0.6996541 1.0232532
-0.91519278 -0.68593675 0.83446586
-0.91190511 -0.68396038 0.68324518
-0.90175033 -0.67658383 0.54379785
-0.90954685 -0.68267506 0.42421767
-0.87980324 -0.66082484 0.30037907
-0.87982565 -0.66083843 0.19173324
-0.94244158 -0.70329362 1.1285006
-0.92832655 -0.69325614 0.9271844
-0.91317236 -0.68218178 0.75542969
-0.90226358 -0.67475963 0.60829288
-0.89658368 -0.6707496 0.47885111
-0.88349342 -0.66119099 0.35686913
-0.87610561 -0.65565902 0.24483825
-0.89164895 -0.6675275 0.1386068
-1.4071567 -1.0096445 11.010031
-1.2016712 -0.87077749 7.1580825
-1.2091262 -0.88512832 4.8376217
-1.1008003 -0.80993617 3.2792168
-1.0332277 -0.76242357 2.4204819
-0.99605978 -0.7365908 1.8921027
-0.97015971 -0.71821296 1.5218216
-1.2485496 -0.87541777 14.17854
-1.3044684 -0.94762331 6.2451787
-1.1303171 -0.82681745 3.8625612
-1.0698904 -0.78574324 2.808502
-1.0094436 -0.74323148 2.1205888
-0.97468352 -0.71867543 1.6783097
-0.9554705 -0.70552456 1.3658769
-0.95075488 -0.70640808 1.2437612
-0.93314028 -0.69406736 1.0201148
-0.91758156 -0.68273789 0.83446586
-0.91073394 -0.67812753 0.68092638
-0.90038866 -0.67066276 0.54192483
-0.90807754 -0.67662978 0.42280763
-0.87816656 -0.65481335 0.29944643
-0.88212705 -0.6577633 0.19173324
-0.93889034 -0.69555461 1.1218495
-0.92749381 -0.68760437 0.92424124
-0.91208547 -0.6764223 0.75289649
-0.90096939 -0.66890067 0.60619479
-0.89512849 -0.66480035 0.4772076
-0.88189435 -0.6552043 0.3556968
-0.87441385 -0.64964348 0.24414757
-0.88996381 -0.66143084 0.13840528
-1.4113053 -1.0051771 11.014969
-1.2022235 -0.86479419 7.1433969
-1.2061703 -0.87651533 4.8137617
-1.1004653 -0.80378437 3.2700117
-1.0320185 -0.75598198 2.4117036
