# .PCD v0.7 - Point Cloud Data file format
VERSION 0.7
FIELDS x y z
SIZE 4 4 4
TYPE F F F
COUNT 1 1 1
WIDTH 1414
HEIGHT 1
VIEWPOINT 0 0 0 1 0 0 0
POINTS 1414
DATA ascii
-0.91898441 -0.50650227 0.7022329
-0.90696871 -0.50049067 0.5663318
-0.8975836 -0.49551046 0.44598094
-0.88939762 -0.4911882 0.33576739
-0.8798787 -0.48592839 0.23240602
-0.88747633 -0.49032053 0.13457619
-1.6467197 -0.86671245 11.829947
-1.274895 -0.67869514 6.9671688
-1.2851354 -0.69214064 4.7135501
-1.1467022 -0.62117743 3.1319361
-1.0629777 -0.57772696 2.2844205
-1.0062996 -0.54827297 1.7557154
-0.98087823 -0.53507876 1.4143715
-0.41462749 -0.19348302 7.7514739
-0.74877864 -0.38398165 7.8050723
-1.432314 -0.76466447 6.288733
-1.1997979 -0.64562762 3.7593205
-1.1045334 -0.59707808 2.6599619
-1.0309383 -0.55890715 1.9883448
-0.99006438 -0.53763139 1.5665889
-0.9689182 -0.52701151 1.2739978
-0.96375573 -0.52791232 1.1596521
-0.94118512 -0.51617926 0.94793022
-0.92572647 -0.5079062 0.77689505
-0.9176358 -0.50387555 0.63455039
-0.91088361 -0.50036913 0.5082103
-0.89576411 -0.49226165 0.39037687
-0.87805247 -0.4829219 0.28172666
-0.88561702 -0.48707932 0.18368581
-0.94692582 -0.51697105 1.0420375
-0.93516207 -0.51096427 0.85949171
-0.92074686 -0.50329131 0.7022329
-0.90871018 -0.4973217 0.5663318
-0.89516574 -0.49010658 0.44433743
-0.88684362 -0.4857457 0.33459508
-0.87722629 -0.48047522 0.23171534
-0.88480109 -0.48481897 0.13437465
-1.6428461 -0.85736519 11.780555
-1.2745546 -0.6728152 6.9524832
-1.2835933 -0.68554121 4.6992345
-1.1419791 -0.6134733 3.1135259
-1.0607712 -0.57174063 2.2756422
-1.0057313 -0.54341936 1.7515824
-0.97992074 -0.53012657 1.4105339
-0.41346425 -0.19119039 7.7165327
-0.75058979 -0.38160691 7.8100438
-1.4294196 -0.75672019 6.2645364
-1.198999 -0.63981104 3.7499349
-1.1027734 -0.5911622 2.6509595
-1.0282886 -0.5528354 1.979813
-0.98928189 -0.53274357 1.5625988
-0.96776801 -0.52201676 1.2703226
-0.96245885 -0.52284276 1.1561475
-0.94298124 -0.51289082 0.94793022
-0.92749369 -0.50467169 0.77689505
-0.91549867 -0.49855083 0.63223159
-0.90855366 -0.49496877 0.50633723
-0.89747697 -0.48913187 0.39037687
-0.87973291 -0.47985399 0.28172666
-0.88293999 -0.48160034 0.18323873
-0.94872463 -0.51366252 1.0420375
-0.93338609 -0.50577128 0.85654855
-0.92249805 -0.50007421 0.7022329
-0.90645176 -0.49198177 0.56423378
-0.89687109 -0.48697892 0.44433743
-0.88853383 -0.48264706 0.33459508
-0.87454653 -0.47504649 0.23102465
-0.88648808 -0.48172745 0.13437465
-1.6285752 -0.84270096 11.657073
-1.274189 -0.66694593 6.9377975
-1.2820208 -0.67896104 4.6849184
-1.1372162 -0.60580975 3.0951159
-1.0606482 -0.56690556 2.2712533
-1.0051417 -0.53857654 1.7474495
-0.97894078 -0.52518767 1.4066964
-0.41307822 -0.18926729 7.6965656
-0.75191724 -0.37898454 7.8100438
-1.4264874 -0.74880546 6.2403388
-1.1966491 -0.63320094 3.7358565
-1.1009856 -0.58526582 2.641957
-1.0279106 -0.54801583 1.975547
-0.98847747 -0.52786779 1.5586089
-0.96958429 -0.51863545 1.2703226
-0.96113831 -0.51778871 1.152643
-0.94133997 -0.50774837 0.94479173
-0.92556983 -0.4994455 0.77415359
-0.91723335 -0.49535209 0.63223159
-0.91027588 -0.49179429 0.50633723
-0.89917892 -0.4859961 0.39037687
-0.87708187 -0.47444308 0.28079402
-0.88461566 -0.47851536 0.18323873
-0.94722223 -0.50858158 1.038712
-0.93158531 -0.50059688 0.85360539
-0.92044115 -0.49481007 0.6996997
-0.90816355 -0.48881468 0.56423378
-0.89856553 -0.48384526 0.44433743
-0.89021313 -0.47954255 0.33459508
-0.87183964 -0.4696424 0.23033397
-0.88376617 -0.47626004 0.13417313
-1.6183705 -0.83027446 11.563227
-1.2737979 -0.66108745 6.9231119
-1.2817398 -0.67309403 4.6753745
-1.1358689 -0.60001171 3.0859108
-1.0583881 -0.5609569 2.2624753
-1.0070157 -0.5350647 1.7474495
-0.97793823 -0.52026206 1.402859
-0.41505206 -0.188418 7.7215242
-0.75323558 -0.37635756 7.8100438
-1.4235173 -0.74092048 6.2161417
-1.1942675 -0.62661511 3.7217784
-1.0991702 -0.57938921 2.6329546
-1.0252059 -0.54198688 1.967015
-0.98765099 -0.52300417 1.5546188
-0.96839374 -0.51365936 1.2666475
-0.96293986 -0.51443058 1.152643
-0.93967438 -0.50262362 0.94165331
-0.92730755 -0.49621162 0.77415359
-0.91505176 -0.49005607 0.62991279
-0.90790069 -0.48642462 0.50446421
-0.90086985 -0.48285443 0.39037687
-0.87873262 -0.47137859 0.28079402
-0.8862806 -0.47542456 0.18323873
-0.94569594 -0.50351745 1.0353866
-0.93332708 -0.49734199 0.85360539
-0.91835856 -0.48956633 0.69716656
-0.90986425 -0.48564163 0.56423378
-0.89608341 -0.47848153 0.44269392
-0.8875944 -0.4741421 0.33342275
-0.8734737 -0.46659628 0.23033397
-0.88542318 -0.47317222 0.13417313
-1.6060213 -0.81687295 11.454564
-1.2742867 -0.65570557 6.913321
-1.2801094 -0.66654807 4.6610584
-1.1258415 -0.58969885 3.0536931
-1.0582196 -0.55614495 2.258086
-1.0063875 -0.53023469 1.7433165
-0.97974831 -0.51684529 1.402859
-0.4157072 -0.18696804 7.7215242
-0.75358909 -0.37325329 7.8001013
-1.4205096 -0.73306543 6.1919446
-1.1918546 -0.62005365 3.7077
-1.0953978 -0.57252413 2.6194508
-1.0247816 -0.53719431 1.9627492
-0.9868027 -0.51815277 1.5506288
-0.97018081 -0.5102759 1.2666475
-0.96157837 -0.50939685 1.1491385
-0.93798453 -0.49751681 0.93851483
-0.92534024 -0.4910118 0.77141213
-0.91675681 -0.48685896 0.62991279
-0.9054991 -0.48107749 0.50259119
-0.90254986 -0.47970685 0.39037687
-0.87603581 -0.46600145 0.27986142
-0.88353807 -0.46998924 0.18279165
-0.94744784 -0.50021333 1.0353866
-0.93148369 -0.49219283 0.85066223
-0.91625082 -0.48434317 0.69463336
-0.90754259 -0.48033962 0.5621357
-0.89774811 -0.47535068 0.44269392
-0.88924402 -0.4710409 0.33342275
-0.8750971 -0.46354443 0.23033397
-0.88265514 -0.46773934 0.13397159
-1.6012305 -0.80741489 11.400231
-1.2756609 -0.65079093 6.9084263
-1.2784489 -0.66002172 4.6467428
-1.1140221 -0.57856303 3.0168729
-1.0559065 -0.55023444 2.2493079
-1.0082322 -0.5267185 1.7433165
-0.9787063 -0.51193672 1.3990214
-0.4166213 -0.18563274 7.7265162
-0.75345159 -0.36991644 7.7851863
-1.4185835 -0.72581285 6.1725869
-1.1909442 -0.61430764 3.6983144
-1.0935237 -0.56669402 2.6104486
-1.0243362 -0.53241116 1.9584832
-0.98860538 -0.514705 1.5506288
-0.96895009 -0.5053187 1.2629722
-0.96019334 -0.50437891 1.1456339
-0.93971545 -0.49423957 0.93851483
-0.92334807 -0.48583189 0.76867068
-0.91453105 -0.48159194 0.62759399
-0.90307111 -0.47575301 0.50071812
-0.90421885 -0.47655347 0.39037687
-0.87765718 -0.46294069 0.27986142
-0.88517326 -0.46690226 0.18279165
-0.94588017 -0.49517149 1.032061
-0.92961568 -0.48706254 0.84771907
-0.91411775 -0.47914073 0.69210023
-0.90921378 -0.47716877 0.5621357
-0.89522099 -0.47001901 0.44105041
-0.88657969 -0.46567383 0.33225045
-0.87670982 -0.46048698 0.23033397
-0.87985986 -0.46233159 0.13377006
-1.5984787 -0.79904228 11.360718
-1.277016 -0.64587468 6.9035311
-1.2767586 -0.6535151 4.6324267
-1.1004021 -0.56662285 2.97545
-1.055693 -0.5454461 2.2449188
-1.007566 -0.52190179 1.7391837
-0.97764188 -0.50704169 1.3951839
-0.41753107 -0.18429333 7.7315073
-0.75329995 -0.36658514 7.7702718
-1.415503 -0.71801412 6.1483898
-1.1900084 -0.60857552 3.6889291
-1.0896862 -0.55988926 2.596945
-1.0238701 -0.52763778 1.9542174
-0.9877184 -0.50986898 1.5466388
-0.97070807 -0.5019334 1.2629722
-0.95878512 -0.49937689 1.1421293
-0.93798369 -0.48915666 0.93537635
-0.92503834 -0.48260581 0.76867068
-0.91620654 -0.47839671 0.62759399
-0.90472633 -0.47259781 0.50071812
-0.90587687 -0.47339424 0.39037687
-0.87926775 -0.45987427 0.27986142
-0.88238478 -0.4615016 0.18234457
-0.94760281 -0.49186671 1.032061
-0.92772323 -0.48195133 0.84477592
-0.91195953 -0.47395909 0.68956703
-0.90684777 -0.47189716 0.56003767
-0.89685619 -0.46689123 0.44105041
-0.88388878 -0.46033111 0.33107814
-0.87831193 -0.45742387 0.23033397
-0.88146842 -0.45925751 0.13377006
-1.5942954 -0.7900089 11.311325
-1.2783525 -0.64095688 6.8986359
-1.2750384 -0.64702827 4.6181107
-1.0867122 -0.55478489 2.9340274
-1.0554588 -0.54066592 2.2405298
-1.0068783 -0.51709616 1.7350507
-0.97655529 -0.50216043 1.3913465
-0.41817185 -0.18283474 7.7315073
-0.75313425 -0.3632594 7.7553573
-1.4112628 -0.70968121 6.1193533
-1.189047 -0.60285747 3.6795435
-1.0877542 -0.55410618 2.5879426
-1.023383 -0.52287418 1.9499513
-0.98680967 -0.50504541 1.5426488
-0.96943742 -0.49699548 1.2592971
-0.96052241 -0.49602705 1.1421293
-0.93622786 -0.48409185 0.93223786
-0.9230032 -0.47745278 0.76592922
-0.91393697 -0.4731591 0.62527519
-0.90225387 -0.4673048 0.49884507
-0.90326452 -0.46802244 0.38896683
-0.88086766 -0.45680225 0.27986142
-0.88399035 -0.45841867 0.18234457
-0.94599402 -0.48684755 1.0287355
-0.9258064 -0.4768593 0.84183276
-0.91360837 -0.47077286 0.68956703
-0.9044562 -0.46664798 0.55793959
-0.89428431 -0.46159199 0.4394069
-0.88549024 -0.45724297 0.33107814
-0.87990332 -0.45435518 0.23033397
-0.87862742 -0.45388487 0.13356853
-1.5900686 -0.7810145 11.261932
-1.2805821 -0.6364907 6.8986359
-1.2732886 -0.64056158 4.6037946
-1.0886422 -0.55098814 2.9340274
-1.0552043 -0.53589416 2.2361407
-1.0061693 -0.51230168 1.7309177
-0.97830224 -0.49874854 1.3913465
-0.41907269 -0.18148808 7.7364993
-0.75295454 -0.35993931 7.7404432
-1.4092313 -0.70250803 6.0999956
-1.1880603 -0.5971536 3.6701579
-1.0877385 -0.54932463 2.5834413
-1.0205488 -0.51694202 1.9414195
-0.98587942 -0.50023443 1.5386587
-0.968144 -0.49207252 1.2556219
-0.95907354 -0.49104604 1.1386248
-0.93791193 -0.48082083 0.93223786
-0.92466426 -0.47422802 0.76592922
-0.91558301 -0.46996599 0.62527519
-0.90387958 -0.46415254 0.49884507
-0.90489274 -0.46486658 0.38896683
-0.88245678 -0.45372468 0.27986142
-0.88558513 -0.45533019 0.18234457
-0.94436163 -0.48184556 1.0254101
-0.92746532 -0.47362474 0.84183276
-0.91524607 -0.46758091 0.68956703
-0.90607959 -0.46348798 0.55793959
-0.89589012 -0.45846751 0.4394069
-0.88275433 -0.45193428 0.32990581
-0.88148391 -0.45128101 0.23033397
-0.88020641 -0.45081511 0.13356853
-1.5851001 -0.7717194 11.207601
-1.282796 -0.63201672 6.8986359
-1.2715093 -0.63411498 4.589479
-1.0870664 -0.54543275 2.9248226
-1.054929 -0.53113055 2.2317514
-1.0054393 -0.50751847 1.7267847
-0.97717649 -0.49388492 1.387509
-0.42076588 -0.18047701 7.7564659
-0.75372452 -0.35708085 7.7354712
-1.4060401 -0.69480097 6.0757985
-1.1870482 -0.59146392 3.6607723
-1.0857559 -0.54357553 2.5744388
-1.0200161 -0.5122062 1.9371535
-0.98492759 -0.49543613 1.5346687
-0.96682817 -0.48716468 1.2519468
-0.95760167 -0.48608121 1.1351203
-0.93611467 -0.47578055 0.92909944
-0.92258668 -0.46910238 0.76318777
-0.91326994 -0.4647581 0.6229564
-0.90549421 -0.46099457 0.49884507
-0.90650994 -0.46170509 0.38896683
-0.88403523 -0.45064154 0.27986142
-0.88273233 -0.44997451 0.18189749
-0.94603789 -0.47854617 1.0254101
-0.92550683 -0.46855882 0.8388896
-0.91687268 -0.46438327 0.68956703
-0.90364408 -0.45826966 0.55584157
-0.89327377 -0.453201 0.43776339
-0.88432646 -0.44885013 0.32990581
-0.88305378 -0.4482013 0.23033397
-0.87732017 -0.44547799 0.133367
-1.5807856 -0.762806 11.158208
-1.2849944 -0.6275351 6.8986359
-1.2697003 -0.62768853 4.5751624
-1.0854651 -0.53989506 2.9156172
-1.0524907 -0.52530617 2.2229733
-1.0046881 -0.50274658 1.7226517
-0.97602886 -0.48903525 1.3836714
-0.42139331 -0.17900716 7.7564659
-0.7544837 -0.35422137 7.7304997
-1.4028124 -0.68712473 6.0516014
-1.186011 -0.58578867 3.651387
-1.0856967 -0.53881466 2.5699377
-1.0194631 -0.50748056 1.9328877
-0.98395437 -0.49065056 1.5306787
-0.96852279 -0.48378688 1.2519468
-0.95610684 -0.48113263 1.1316158
-0.93429375 -0.47075868 0.92596096
-0.92421848 -0.46587908 0.76318777
-0.91093171 -0.4595722 0.6206376
-0.90709788 -0.457831 0.49884507
-0.9081161 -0.45853797 0.38896683
-0.88560289 -0.44755295 0.27986142
-0.88429767 -0.44689047 0.18189749
-0.94436485 -0.4735674 1.0220846
-0.92713672 -0.46532536 0.8388896
-0.91463566 -0.45924574 0.68703383
-0.90523821 -0.45511252 0.55584157
-0.89485031 -0.45008016 0.43776339
-0.88588786 -0.44576049 0.32990581
-0.88018924 -0.44289029 0.22964329
-0.87886977 -0.44241285 0.133367
-1.5764285 -0.75393218 11.108815
-1.287177 -0.6230458 6.8986359
-1.2678622 -0.62128258 4.5608468
-1.0838383 -0.53437525 2.9064121
-1.0521712 -0.52056718 2.2185843
-1.001395 -0.49673587 1.7143859
-0.97772998 -0.4856253 1.3836714
-0.42121658 -0.17720105 7.7414908
-0.75571555 -0.35158557 7.7304997
-1.3995483 -0.67947954 6.0274043
-1.1849487 -0.58012789 3.6420014
-1.0856175 -0.53406084 2.5654364
-1.0188894 -0.50276494 1.9286216
-0.98295969 -0.48587784 1.5266887
-0.96716756 -0.47889897 1.2482716
-0.95458925 -0.47620046 1.1281111
-0.93244916 -0.46575537 0.92282254
-0.92209852 -0.4607811 0.76044625
-0.91253036 -0.45638964 0.6206376
-0.90454459 -0.45258752 0.49697205
-0.90971112 -0.45536527 0.38896683
-0.88276774 -0.4422586 0.27892879
-0.88139975 -0.44157037 0.18145041
-0.94601214 -0.47026807 1.0220846
-0.92513645 -0.46028581 0.83594644
-0.91623312 -0.45605028 0.68703383
-0.90275937 -0.44992554 0.55374348
-0.89218992 -0.44484678 0.43611988
-0.88308889 -0.44049591 0.3287335
-0.8817299 -0.43981516 0.22964329
-0.88040876 -0.43934232 0.133367
-1.5720288 -0.74509805 11.059422
-1.289344 -0.61854893 6.8986359
-1.2659949 -0.61489707 4.5465307
-1.0909631 -0.5331617 2.9202199
-1.0518316 -0.51583689 2.2141953
-1.0005975 -0.49199578 1.7102529
-0.97654343 -0.48079374 1.3798339
-0.42049885 -0.17517748 7.7165327
-0.75742245 -0.34916842 7.7354712
-1.3973807 -0.67241055 6.0080466
-1.1823086 -0.57372838 3.627923
-1.0835615 -0.52836013 2.5564339
-1.0182954 -0.49805963 1.9243557
-0.98194373 -0.48111805 1.5226986
-0.96578985 -0.47402641 1.2445965
-0.95304877 -0.47128475 1.1246065
-0.93406928 -0.46249768 0.92282254
-0.92370135 -0.45755956 0.76044625
-0.91014904 -0.45123398 0.6183188
-0.90611887 -0.44942731 0.49697205
-0.91129512 -0.452187 0.38896683
-0.88430613 -0.43917444 0.27892879
-0.88293576 -0.43849102 0.18145041
-0.94429868 -0.46531278 1.018759
-0.92673749 -0.45705372 0.83594644
-0.9178195 -0.45284927 0.68703383
-0.90432435 -0.44677159 0.55374348
-0.89373726 -0.44172975 0.43611988
-0.88462114 -0.43741068 0.3287335
-0.87882066 -0.43453977 0.2289526
-0.87745893 -0.43405133 0.13316546
-1.56407 -0.73465288 10.985333
-1.2914953 -0.61404449 6.8986359
-1.2654433 -0.6091795 4.5369868
-1.0980926 -0.53190482 2.9340274
-1.0514717 -0.51111525 2.209806
-0.99977905 -0.48726729 1.70612
-0.97533524 -0.4759765 1.3759965
-0.41843662 -0.17261362 7.666616
-0.7571817 -0.34585869 7.7205567
-1.3951808 -0.66536486 5.9886889
-1.1811936 -0.56810218 3.6185374
-1.0834391 -0.5236274 2.5519328
-1.0176808 -0.49336451 1.9200897
-0.98090661 -0.47637132 1.5187087
-0.96438998 -0.46916932 1.2409213
-0.95148581 -0.46638563 1.121102
-0.9321838 -0.45751953 0.91968405
-0.92153949 -0.45248961 0.75770479
-0.91171855 -0.44805419 0.6183188
-0.90352184 -0.44421628 0.49509901
-0.91286802 -0.44900325 0.38896683
-0.88142663 -0.43391544 0.27799615
-0.87999308 -0.43320686 0.18100333
-0.9425621 -0.46037522 1.0154335
-0.92469591 -0.45204091 0.83300328
-0.91552204 -0.4477489 0.68450069
-0.9018023 -0.44161621 0.55164546
-0.89103305 -0.43652984 0.43447638
-0.88614261 -0.43432009 0.3287335
-0.88033217 -0.43146947 0.2289526
-0.87896878 -0.43098578 0.13316546
-1.5511262 -0.72197813 10.876671
-1.2936308 -0.60953259 6.8986359
-1.2635202 -0.60283065 4.5226707
-1.1069877 -0.53145003 2.9524376
-1.0510918 -0.50640249 2.2054172
-0.99893987 -0.48255059 1.701987
-0.97410512 -0.47117352 1.3721589
-0.41983908 -0.17147765 7.681591
-0.75692707 -0.34255496 7.7056422
-1.3929489 -0.65834278 5.9693313
-1.1800537 -0.56249088 3.6091518
-1.0813336 -0.5179618 2.5429304
-1.017046 -0.48867974 1.9158239
-0.97984827 -0.47163767 1.5147187
-0.96296811 -0.46432784 1.2372462
-0.95310795 -0.46306148 1.121102
-0.93027496 -0.45256022 0.91654563
-0.91935349 -0.44744033 0.75496328
-0.90929449 -0.44292918 0.616
-0.90089953 -0.43902889 0.49322599
-0.91011775 -0.44371185 0.38755682
-0.8785212 -0.42868188 0.27706355
-0.88149989 -0.43013248 0.18100333
-0.94416344 -0.45708224 1.0154335
-0.92626816 -0.4488104 0.83300328
-0.91320032 -0.4426702 0.6819675
-0.90333837 -0.43846563 0.55164546
-0.89255148 -0.4334169 0.43447638
-0.88328117 -0.42910033 0.32756117
-0.87737858 -0.42623007 0.22826193
-0.87597442 -0.42573118 0.13296394
-1.553637 -0.71655929 10.876671
-1.2948279 -0.60458261 6.8937402
-1.2615682 -0.59650272 4.5083551
-1.1141286 -0.53010035 2.9662452
-1.0506917 -0.50169855 2.2010279
-0.99808002 -0.47784573 1.697854
-0.97574395 -0.46777037 1.3721589
-0.42284599 -0.17097978 7.7265162
-0.76152384 -0.34143555 7.7404432
-1.3906851 -0.65134454 5.9499736
-1.1804497 -0.55763137 3.6044593
-1.0811684 -0.51325065 2.538429
-1.0163908 -0.48400545 1.9115579
-0.97876894 -0.46691725 1.5107286
-0.9645831 -0.46096361 1.2372462
-0.9515053 -0.45818457 1.1175975
-0.931849 -0.44931018 0.91654563
-0.9209097 -0.44422847 0.75496328
-0.91083509 -0.43975243 0.616
-0.90242648 -0.43588153 0.49322599
-0.91166103 -0.44053224 0.38755682
-0.88001221 -0.42561266 0.27706355
-0.87851274 -0.42488465 0.18055625
-0.94238681 -0.45216864 1.0121081
-0.92418545 -0.44382465 0.83006012
-0.91473997 -0.4394798 0.6819675
-0.90486336 -0.43530974 0.55164546
-0.88980389 -0.42825088 0.43283287
-0.88477367 -0.42601448 0.32756117
-0.87886107 -0.42316484 0.22826193
-0.87745517 -0.42267087 0.13296394
-1.5427003 -0.70499784 10.782825
-1.2969304 -0.60005915 6.8937402
-1.2595875 -0.59019583 4.4940395
-1.1248081 -0.53037339 2.9892578
-1.0481066 -0.49597934 2.1922498
-0.99719954 -0.4731527 1.6937212
-0.97447574 -0.46298623 1.3683214
-0.42451325 -0.16992952 7.7464828
-0.7719692 -0.34288177 7.8349013
-1.3883895 -0.64437002 5.9306159
-1.1792631 -0.55204445 3.5950737
-1.0790135 -0.50762039 2.5294268
-1.0157155 -0.47934178 1.907292
-0.97766858 -0.46221012 1.5067385
-0.96312231 -0.45614281 1.2335709
-0.95309889 -0.45486042 1.1175975
-0.92989981 -0.44437656 0.91340715
-0.91868228 -0.43920773 0.75222182
-0.91236454 -0.43657035 0.616
-0.89976096 -0.43072715 0.49135295
-0.91319329 -0.43734726 0.38755682
-0.87706286 -0.42041495 0.27613091
-0.87999052 -0.42181545 0.18055625
-0.94058746 -0.44727305 1.0087825
-0.92572904 -0.44059595 0.83006012
-0.91237634 -0.43443093 0.6794343
-0.90637738 -0.43214852 0.55164546
-0.89129341 -0.42514229 0.43283287
-0.88186854 -0.42083013 0.32638884
-0.87586355 -0.41796175 0.22757125
-0.87441677 -0.41745305 0.1327624
-1.5394888 -0.69704562 10.74331
-1.2990171 -0.5955283 6.8937402
-1.258932 -0.5845384 4.4844952
-1.1284225 -0.52727073 2.9938602
-1.0476631 -0.49130106 2.1878607
-0.99629837 -0.46847165 1.6895882
-0.97318596 -0.45821664 1.364484
-0.42779005 -0.16950423 7.7963991
-0.78731412 -0.34640351 7.979075
-1.3860619 -0.63741952 5.9112582
-1.1780518 -0.54647267 3.5856881
-1.0768325 -0.50201154 2.5204244
-1.01502 -0.47468865 1.903026
-0.9765473 -0.4575164 1.5027486
-0.96163958 -0.45133784 1.2298958
-0.9514569 -0.45000607 1.1140929
-0.9314453 -0.4411279 0.91340715
-0.92020983 -0.43599826 0.75222182
-0.90988034 -0.43148494 0.6136812
-0.90125901 -0.42758375 0.49135295
-0.9103806 -0.43210009 0.38614678
-0.87852508 -0.41735089 0.27613091
-0.88145763 -0.41874114 0.18055625
-0.94214296 -0.44398704 1.0087825
-0.92360568 -0.43563774 0.82711697
-0.9138872 -0.43124351 0.6794343
-0.90377676 -0.42704314 0.54954737
-0.88850272 -0.42001045 0.43118936
-0.88333213 -0.41774929 0.32638884
-0.87731713 -0.41490188 0.22757125
-0.87586862 -0.41439822 0.1327624
-1.5468755 -0.69389278 10.777884
-1.301088 -0.5909903 6.8937402
-1.2582525 -0.57889283 4.4749508
-1.1302562 -0.5233286 2.9938602
-1.0471996 -0.48663187 2.1834717
-0.99537688 -0.46380273 1.6854552
-0.97187477 -0.45346168 1.3606465
-0.42622718 -0.16717137 7.7564659
-0.79145116 -0.34492955 8.0089045
-1.3848469 -0.63101429 5.89674
-1.1752481 -0.54019552 3.5716097
-1.0746257 -0.49642408 2.5114219
-1.0143045 -0.47004628 1.8987602
-0.97540528 -0.45283613 1.4987586
-0.96320921 -0.44797838 1.2298958
-0.94979274 -0.44516876 1.1105883
-0.92945588 -0.43622026 0.91026872
-0.91794109 -0.43100643 0.74948037
-0.91138095 -0.42830622 0.6136812
-0.89855069 -0.42246276 0.48947993
-0.91188335 -0.42891964 0.38614678
-0.87553209 -0.41218939 0.27519831
-0.88291389 -0.41566172 0.18055625
-0.94030392 -0.43911594 1.005457
-0.92512071 -0.43241107 0.82711697
-0.91538697 -0.42805085 0.6794343
-0.90526187 -0.42388579 0.54954737
-0.88996345 -0.41690645 0.43118936
-0.884785 -0.41466334 0.32638884
-0.8742761 -0.40973553 0.22688057
-0.8773098 -0.41133833 0.1327624
-1.5421871 -0.68533474 10.728492
-1.303143 -0.58644503 6.8937402
-1.257549 -0.57325923 4.4654074
-1.1267488 -0.51693654 2.9800527
-1.0445409 -0.48097041 2.1746933
-0.99443483 -0.45914593 1.6813223
-0.97054237 -0.4487215 1.3568089
-0.42761621 -0.1659942 7.771441
-0.79558742 -0.34343085 8.0387335
-1.383604 -0.62462521 5.8822217
-1.1739855 -0.53465968 3.5622244
-1.0723929 -0.49085814 2.5024195
-1.0159391 -0.46650288 1.8987602
-0.97424245 -0.44816944 1.4947685
-0.9616881 -0.44319466 1.2262206
-0.95134085 -0.44185063 1.1105883
-0.93097287 -0.43297324 0.91026872
-0.91944003 -0.42779958 0.74948037
-0.90885466 -0.42325228 0.6113624
-0.90001988 -0.41932365 0.48947993
-0.90902704 -0.4237074 0.38473675
-0.87696558 -0.40913072 0.27519831
-0.88435942 -0.41257724 0.18055625
-0.94183105 -0.43583098 1.005457
-0.92295665 -0.42748052 0.82417381
-0.91687554 -0.42485291 0.6794343
-0.90261906 -0.41881308 0.54744929
-0.88713008 -0.41180912 0.42954585
-0.88622707 -0.41157231 0.32638884
-0.87570101 -0.40668121 0.22688057
-0.87874025 -0.40827343 0.1327624
-1.533902 -0.67525333 10.654404
-1.3051821 -0.58189267 6.8937402
-1.2554611 -0.56702328 4.4510913
-1.1249892 -0.51138371 2.9708476
-1.0440345 -0.47632745 2.1703045
-0.99347246 -0.45450136 1.6771894
-0.96918869 -0.44399613 1.3529714
-0.42900217 -0.16480935 7.7864161
-0.80168378 -0.34274474 8.0884485
-1.3811859 -0.61773944 5.862864
-1.1726986 -0.52913928 3.5528388
-1.0701345 -0.48531389 2.493417
-1.0151871 -0.46187377 1.8944942
-0.97305894 -0.44351637 1.4907786
-0.9632293 -0.43983504 1.2262206
-0.94963783 -0.4370364 1.1070838
-0.92894346 -0.42809194 0.90713024
-0.91713035 -0.42283693 0.74673891
-0.9103266 -0.4200772 0.6113624
-0.90147811 -0.41617945 0.48947993
-0.90614545 -0.41852033 0.38332671
-0.8783884 -0.40606701 0.27519831
-0.88579422 -0.40948772 0.18055625
-0.93995255 -0.43098468 1.0021316
-0.92076957 -0.42257038 0.82123065
-0.91443533 -0.41985124 0.67690116
-0.90407544 -0.41565979 0.54744929
-0.88856214 -0.40870994 0.42954585
-0.88324273 -0.40644443 0.32521653
-0.87261665 -0.40155187 0.2261899
-0.87562191 -0.40311435 0.13256088
-1.5255655 -0.66523814 10.580315
-1.3062741 -0.576922 6.8888454
-1.2547075 -0.56141841 4.4415474
-1.1232046 -0.50584948 2.9616427
-1.0435083 -0.47169384 2.1659153
-0.99248976 -0.44986913 1.6730564
-0.97073257 -0.44061032 1.3529714
-0.42957485 -0.16331084 7.7864161
-0.80631208 -0.34139743 8.1232491
-1.379886 -0.61138725 5.8483453
-1.1713874 -0.52363437 3.5434532
-1.0698363 -0.48068342 2.4889157
-1.0144156 -0.45725575 1.8902283
-0.97460115 -0.44011706 1.4907786
-0.96166992 -0.43507278 1.2225455
-0.94791263 -0.43223941 1.1035793
-0.93043214 -0.42484671 0.90713024
-0.91860074 -0.41963297 0.74673891
-0.90775865 -0.41505507 0.6090436
-0.90292531 -0.41303018 0.48947993
-0.90323889 -0.41335857 0.38191667
-0.87533444 -0.40095276 0.27426568
-0.88721824 -0.40639326 0.18055625
-0.94145125 -0.42770097 1.0021316
-0.92223895 -0.41935372 0.82123065
-0.91589528 -0.4166567 0.67690116
-0.90139061 -0.41062006 0.54535127
-0.88568634 -0.40364754 0.42790234
-0.88465613 -0.40335888 0.32521653
-0.87401295 -0.39850345 0.2261899
-0.87702376 -0.40005541 0.13256088
-1.5207447 -0.65682924 10.530922
-1.30828 -0.57235879 6.8888454
-1.2525655 -0.55522096 4.4272313
-1.121395 -0.50033391 2.9524376
-1.0429626 -0.46706972 2.1615264
-0.99148709 -0.44524935 1.6689235
-0.9693414 -0.43590477 1.349134
-0.42851973 -0.16120401 7.7564659
-0.80848223 -0.33899257 8.1331921
-1.3774074 -0.60454673 5.8289876
-1.1700523 -0.51814508 3.5340676
-1.0675299 -0.47517589 2.4799132
-1.0136241 -0.45264873 1.8859622
-0.97338098 -0.43548203 1.4867885
-0.96318269 -0.43171328 1.2225455
-0.94616562 -0.42745984 1.1000748
-0.9283632 -0.41999209 0.90399176
-0.91625047 -0.41469988 0.74399745
-0.90920198 -0.41188389 0.6090436
-0.90013903 -0.4079622 0.48760688
-0.90030736 -0.40822226 0.38050666
-0.87672865 -0.3978948 0.27426568
-0.88863134 -0.40329379 0.18055625
-0.93953365 -0.42287979 0.99880606
-0.92001182 -0.41447186 0.81828749
-0.913414 -0.41168588 0.67436796
-0.9028185 -0.40747115 0.54535127
-0.88708997 -0.40055346 0.42790234
-0.88162905 -0.39826739 0.32404423
-0.8753987 -0.39545015 0.2261899
-0.87841487 -0.39699161 0.13256088
-1.5258861 -0.65273881 10.550679
-1.3102698 -0.56778848 6.8888454
-1.2503954 -0.54904532 4.4129157
-1.1195607 -0.49483719 2.9432325
-1.0402081 -0.4614841 2.1527481
-0.9930352 -0.44178569 1.6689235
-0.97085714 -0.43251848 1.349134
-0.42907983 -0.15970722 7.7564659
-0.80966061 -0.33616835 8.1331921
-1.3748982 -0.59773093 5.8096299
-1.1702733 -0.51336455 3.5293748
-1.0671901 -0.47056848 2.4754121
-1.0104277 -0.44699788 1.8774304
-0.97214025 -0.43086082 1.4827985
-0.96158528 -0.42697284 1.2188703
-0.94765198 -0.42415449 1.1000748
-0.92982352 -0.41674897 0.90399176
-0.91769254 -0.41149902 0.74399745
-0.90659273 -0.40689391 0.6067248
-0.8973285 -0.40291876 0.48573387
-0.89735103 -0.40311146 0.37909663
-0.87811226 -0.39483204 0.27426568
-0.89003372 -0.40018946 0.18055625
-0.94100404 -0.4195976 0.99880606
-0.921453 -0.41125789 0.81828749
-0.91484553 -0.40849498 0.67436796
-0.90009207 -0.40246472 0.54325318
-0.88848275 -0.39745453 0.42790234
-0.8830139 -0.3951875 0.32404423
-0.87677372 -0.39239201 0.2261899
-0.87979525 -0.39392292 0.13256088
-1.5303016 -0.6483174 10.565496
-1.311308 -0.56280988 6.8839502
-1.2495666 -0.54348683 4.4033713
-1.1177018 -0.48935938 2.9340274
-1.0396199 -0.45688686 2.1483591
-0.99199617 -0.43718198 1.6647905
-0.96942848 -0.4278329 1.3452964
-0.81132233 -0.33354253 8.1381636
-1.3735126 -0.5914371 5.7951121
-1.1688927 -0.50790131 3.5199893
-1.0668311 -0.46596923 2.4709108
-1.009593 -0.44242144 1.8731647
-0.97363836 -0.42746478 1.4827985
-0.9599666 -0.4222489 1.2151952
-0.94586653 -0.41939858 1.0965703
-0.93127263 -0.41350073 0.90399176
-0.91530186 -0.40659574 0.741256
-0.90800756 -0.40372685 0.6067248
-0.89872944 -0.39978406 0.48573387
-0.89436996 -0.39802629 0.37768659
-0.87948513 -0.39176446 0.27426568
-0.88687617 -0.39505389 0.18010917
-0.93904746 -0.41480175 0.99548054
-0.92288291 -0.40803891 0.81828749
-0.91232347 -0.40355536 0.67183477
-0.90149146 -0.39932036 0.54325318
-0.88554752 -0.39243758 0.42625883
-0.8799445 -0.39013281 0.32287189
-0.87813807 -0.38932914 0.2261899
-0.88116497 -0.39084947 0.13256088
-1.5268228 -0.6405679 10.525983
-1.3132646 -0.55822915 6.8839502
-1.2487141 -0.53794092 4.3938274
-1.1176107 -0.4846777 2.929425
-1.0368164 -0.4513436 2.1395807
-0.99093705 -0.43259087 1.6606575
-0.97091603 -0.42444637 1.3452964
-0.43235609 -0.15749356 7.7963991
-0.81445688 -0.33151132 8.1580486
-1.3709437 -0.58466721 5.7757545
-1.1690732 -0.50313604 3.5152967
-1.0664532 -0.46137825 2.4664097
-1.0087388 -0.43785632 1.8688986
-0.97236121 -0.42286202 1.4788084
-0.96143466 -0.41889542 1.2151952
-0.94405949 -0.41466027 1.0930656
-0.92914736 -0.40868047 0.90085334
-0.91671556 -0.40339828 0.741256
-0.90535718 -0.39876932 0.604406
-0.89587718 -0.39477515 0.48386082
-0.89575386 -0.39490193 0.37768659
-0.87635314 -0.38670897 0.27333307
-0.88369364 -0.38994527 0.17966209
-0.93706894 -0.41002473 0.99215508
-0.92059916 -0.4031935 0.81534433
-0.90977812 -0.39863831 0.66930163
-0.89872378 -0.39434764 0.54115516
-0.88691199 -0.38934404 0.42625883
-0.87685061 -0.38510433 0.32169959
-0.87949175 -0.38626146 0.2261899
-0.88252389 -0.38777125 0.13256088
-1.5197208 -0.63136071 10.461773
-1.3152051 -0.55364162 6.8839502
-1.2478381 -0.53240746 4.3842835
-1.1157055 -0.47923186 2.9202199
-1.0361863 -0.44677362 2.1351919
-0.99244106 -0.42912927 1.6606575
-0.96945029 -0.41978121 1.3414589
-0.4307287 -0.15520523 7.7564659
-0.81659818 -0.32906431 8.1679926
-1.3695023 -0.5784114 5.7612362
-1.1692349 -0.49837565 3.5106039
-1.066056 -0.45679554 2.4619086
-1.0078651 -0.43330261 1.8646327
-0.97106379 -0.41827342 1.4748185
-0.95977825 -0.41419366 1.2115201
-0.94550121 -0.41136238 1.0930656
-0.93056822 -0.40543467 0.90085334
-0.91428494 -0.39852518 0.73851454
-0.90674371 -0.39560664 0.604406
-0.8930009 -0.38979101 0.4819878
-0.89273071 -0.38985303 0.37627655
-0.87769765 -0.38364759 0.27333307
-0.88048631 -0.3848637 0.17921501
-0.93506855 -0.40526661 0.98882955
-0.92200094 -0.39997754 0.81534433
-0.91116405 -0.39546016 0.66930163
-0.90009487 -0.39120811 0.54115516
-0.88393515 -0.38436279 0.42461532
-0.87818956 -0.38204122 0.32169959
-0.8808347 -0.38318911 0.2261899
-0.87929118 -0.3826946 0.13235934
-1.5118548 -0.62191564 10.392623
-1.3161899 -0.54865569 6.879055
-1.2455639 -0.52630591 4.3699675
-1.1155736 -0.47456977 2.9156172
-1.0355369 -0.44221351 2.1308026
-0.99134606 -0.42455471 1.6565247
-0.97090971 -0.41639462 1.3414589
-0.81972259 -0.32700089 8.1878777
-1.3680338 -0.57217276 5.7467175
-1.1677877 -0.49294934 3.5012183
-1.0656401 -0.4522213 2.4574075
-1.0069717 -0.42876032 1.8603667
-0.96974629 -0.413699 1.4708283
-0.9581008 -0.40950862 1.2078449
-0.94365615 -0.40664828 1.0895611
-0.92840403 -0.4006418 0.89771485
-0.91183156 -0.39367405 0.73577309
-0.90811908 -0.3924391 0.604406
-0.89435607 -0.38667151 0.4819878
-0.89408612 -0.38673443 0.37627655
-0.87903148 -0.3805815 0.27333307
-0.88182437 -0.38178787 0.17921501
-0.93647754 -0.40200013 0.98882955
-0.91967773 -0.39516118 0.81240118
-0.90857852 -0.39057484 0.66676843
-0.89728624 -0.38626933 0.53905708
-0.88527143 -0.38127497 0.42461532
-0.87505382 -0.37705004 0.32052726
-0.88216686 -0.38011208 0.2261899
-0.88062173 -0.37962294 0.13235934
-1.5140164 -0.61663449 10.392623
-1.318097 -0.54405797 6.879055
-1.2446392 -0.5208028 4.3604236
-1.115423 -0.4699145 2.9110148
-1.0348681 -0.43766338 2.1264138
-0.99023139 -0.4199931 1.6523917
-0.96940702 -0.41175008 1.3376215
-0.82135504 -0.32433307 8.1928492
-1.3677 -0.56643236 5.7370391
-1.167909 -0.4882046 3.4965255
-1.0652051 -0.4476555 2.4529061
-1.0060592 -0.42422956 1.8561009
-0.9684087 -0.40913889 1.4668382
-0.95640248 -0.40484038 1.2041698
-0.94506985 -0.40335184 1.0895611
-0.92621768 -0.39586905 0.89457643
-0.9132002 -0.39048877 0.73577309
-0.90541089 -0.38752383 0.6020872
-0.89143866 -0.38172248 0.48011476
-0.89102119 -0.38172215 0.37486652
-0.87583989 -0.37557486 0.27240044
-0.87857473 -0.37674478 0.17876793
-0.93443877 -0.39726806 0.98550397
-0.92105156 -0.39194852 0.81240118
-0.90993631 -0.38740095 0.66676843
-0.89445418 -0.38135496 0.53695905
-0.88659692 -0.37818247 0.42461532
-0.87636465 -0.37399325 0.32052726
-0.87893367 -0.37508678 0.22549921
-0.87734681 -0.374585 0.13215782
-1.5089529 -0.60844141 10.34323
-1.3199881 -0.53945369 6.879055
-1.2436916 -0.51531261 4.3508797
-1.1152533 -0.46526602 2.9064121
-1.0341804 -0.43312332 2.1220245
-0.98909682 -0.41544437 1.6482588
-0.96788388 -0.40712112 1.3337839
-0.82397187 -0.32204548 8.2077646
-1.3661799 -0.56022447 5.7225208
-1.1664169 -0.48280519 3.4871402
-1.0647514 -0.44309831 2.448405
-1.0075339 -0.42071518 1.8561009
-0.96705109 -0.4045932 1.4628483
-0.95468313 -0.40018898 1.2004945
-0.94647205 -0.40005046 1.0895611
-0.92759395 -0.39263353 0.89457643
-0.91070724 -0.38566825 0.73303157
-0.90675813 -0.38436097 0.6020872
-0.8927657 -0.37860847 0.48011476
-0.89234817 -0.37860957 0.37486652
-0.87714559 -0.37251535 0.27240044
-0.87988448 -0.3736757 0.17876793
-0.93581986 -0.39400384 0.98550397
-0.91868913 -0.3871614 0.80945796
-0.91128308 -0.3842223 0.66676843
-0.89577985 -0.37823039 0.53695905
-0.88791162 -0.37508535 0.42461532
-0.8776648 -0.37093189 0.32052726
-0.88023758 -0.37201643 0.22549921
-0.878649 -0.37152022 0.13215782
-1.5110675 -0.60317045 10.34323
-1.3218632 -0.53484273 6.879055
-1.2413394 -0.50926888 4.3365636
-1.115065 -0.46062452 2.9018097
-1.0334737 -0.42859343 2.1176355
-0.98794258 -0.41090873 1.6441258
-0.96929908 -0.40374011 1.3337839
-0.82608551 -0.31955147 8.2177076
-1.3657976 -0.55450678 5.7128415
-1.1664983 -0.47807643 3.4824471
-1.062266 -0.43772048 2.4394026
-1.006586 -0.41619924 1.8518349
-0.96845752 -0.40121508 1.4628483
-0.95294297 -0.39555451 1.1968194
-0.94457299 -0.39536738 1.0860566
-0.92536908 -0.38788867 0.89143795
-0.91204786 -0.38248697 0.73303157
-0.90809423 -0.38119346 0.6020872
-0.89408183 -0.3754898 0.48011476
-0.89366436 -0.37549239 0.37486652
-0.87391251 -0.36754692 0.27146783
-0.88118351 -0.37060207 0.17876793
-0.93718946 -0.39073479 0.98550397
-0.920035 -0.3839522 0.80945796
-0.90864068 -0.3793782 0.66423523
-0.89290744 -0.37335056 0.53486103
-0.88921547 -0.37198368 0.42461532
-0.87447053 -0.36598948 0.31935495
-0.87696272 -0.36702973 0.22480853
-0.87994045 -0.36845091 0.13215782
-1.5131638 -0.59789217 10.34323
-1.3246672 -0.53060377 6.8839502
-1.2403436 -0.50380951 4.3270197
-1.1148577 -0.45598993 2.8972073
-1.0327479 -0.42407376 2.1132464
-0.98676896 -0.40638626 1.6399928
-0.96773928 -0.39913219 1.3299464
-0.82769388 -0.31685627 8.2226791
-1.364226 -0.54833001 5.6983237
-1.1649618 -0.47270429 3.4730618
-1.0617716 -0.4331876 2.4349012
-1.005619 -0.41169515 1.847569
-0.9670642 -0.3966887 1.4588583
-0.95118231 -0.39093712 1.1931442
-0.94594729 -0.39206779 1.0860566
-0.9267174 -0.38465613 0.89143795
-0.91337746 -0.37930098 0.73303157
-0.90532887 -0.37632108 0.5997684
-0.89538711 -0.37236658 0.48011476
-0.89054054 -0.37052786 0.37345648
-0.87519014 -0.36449417 0.27146783
-0.88247174 -0.36752391 0.17876793
-0.93509632 -0.3860364 0.98217851
-0.92136961 -0.38073835 0.80945796
-0.90995944 -0.37620416 0.66423523
-0.89420527 -0.37023142 0.53486103
-0.89050853 -0.36887747 0.42461532
-0.87574273 -0.36293477 0.31935495
-0.8782385 -0.36396632 0.22480853
-0.88122123 -0.36537707 0.13215782
-1.5101758 -0.59062648 10.308656
-1.3265114 -0.5259766 6.8839502
-1.2393246 -0.49836332 4.3174753
-1.1128209 -0.45062932 2.8880022
-1.0320032 -0.41956437 2.1088572
-0.98557568 -0.40187699 1.63586
-0.96912658 -0.39575174 1.3299464
-0.83029056 -0.31453091 8.2375927
-1.3626277 -0.54217094 5.6838055
-1.163402 -0.46734878 3.4636762
-1.0612588 -0.42866358 2.4304001
-1.0046328 -0.40720284 1.843303
-0.96844304 -0.39331058 1.4588583
-0.9494009 -0.38633686 1.1894691
-0.94401085 -0.38740963 1.0825521
-0.92805451 -0.38141894 0.89143795
-0.91082859 -0.37452033 0.73029011
-0.90663695 -0.37315863 0.5997684
-0.89668149 -0.36923882 0.48011476
-0.89182848 -0.36741704 0.37345648
-0.87645715 -0.36143693 0.27146783
-0.88374931 -0.36444125 0.17876793
-0.9364382 -0.38276994 0.98217851
-0.91895205 -0.37598938 0.8065148
-0.90727758 -0.37139252 0.6617021
-0.8954922 -0.36710781 0.53486103
-0.89179075 -0.36576679 0.42461532
-0.87700433 -0.35987568 0.31935495
-0.87492234 -0.35901859 0.22411785
-0.87786967 -0.36040148 0.13195628
-1.508605 -0.58394957 10.283959
-1.3273914 -0.52097118 6.879055
-1.2396698 -0.49348232 4.3127041
-1.1125736 -0.44601536 2.8833997
-1.0290178 -0.41417131 2.1000791
-0.98697245 -0.39843422 1.63586
-0.96753055 -0.39116523 1.3261089
-0.8318826 -0.31181762 8.2425642
-1.3610032 -0.53602976 5.6692867
-1.1618191 -0.46200991 3.4542906
-1.0607271 -0.42414838 2.4258988
-1.0036277 -0.40272245 1.8390369
-0.96701425 -0.38880381 1.4548682
-0.95074368 -0.38302046 1.1894691
-0.94535738 -0.38411206 1.0825521
-0.92577487 -0.37671024 0.88829952
-0.91213036 -0.37133867 0.73029011
-0.90383154 -0.36831993 0.59744954
-0.89367205 -0.36435646 0.47824174
-0.89310557 -0.36430174 0.37345648
-0.87316567 -0.35651851 0.2705352
-0.88501602 -0.36135417 0.17876793
-0.93430746 -0.37809831 0.97885299
-0.92025888 -0.37277934 0.8065148
-0.90856838 -0.36822328 0.6617021
-0.89676815 -0.36397973 0.53486103
-0.88868684 -0.36087501 0.42297181
-0.87375194 -0.35498267 0.31818265
-0.87158233 -0.35409847 0.22342718
-0.87912232 -0.35733494 0.13195628
-1.5019265 -0.57534617 10.224689
-1.3292018 -0.51633453 6.879055
-1.238607 -0.48805788 4.3031597
-1.1104919 -0.44068813 2.8741946
-1.0282323 -0.40969053 2.09569
-0.98574412 -0.39394248 1.631727
-0.96591419 -0.38659468 1.3222713
-0.83296603 -0.30891189 8.2425642
-1.3593525 -0.52990657 5.6547685
-1.1602131 -0.45668778 3.444905
-1.0601771 -0.41964215 2.4213977
-1.0026034 -0.3982541 1.8347712
-0.96836549 -0.3854259 1.4548682
-0.94892585 -0.37844372 1.1857939
-0.94338381 -0.37947911 1.0790474
-0.92708421 -0.37347639 0.88829952
-0.91342103 -0.36815247 0.73029011
-0.90511173 -0.36516273 0.59744954
-0.89493841 -0.36123475 0.47824174
-0.88992369 -0.35938579 0.37204644
-0.87440485 -0.35346839 0.2705352
-0.88165498 -0.35639635 0.17832085
-0.93215555 -0.37344629 0.97552752
-0.91780287 -0.36806041 0.80357164
-0.90584743 -0.36344448 0.6591689
-0.89803326 -0.3608472 0.53486103
-0.8899411 -0.35777071 0.42297181
-0.87498569 -0.35193056 0.31818265
-0.87281299 -0.35105395 0.22342718
-0.87572956 -0.35239899 0.13175476
-1.4988394 -0.56817293 10.190113
-1.3300456 -0.51132637 6.8741593
-1.2375218 -0.48264694 4.2936158
-1.1102048 -0.43609497 2.869592
-1.027428 -0.40522024 2.091301
-0.98711318 -0.39049917 1.631727
-0.96725774 -0.38322064 1.3222713
-0.83403921 -0.30600241 8.2425642
-1.3576754 -0.52380139 5.6402507
-1.1585841 -0.45138249 3.4355197
-1.0596083 -0.41514489 2.4168963
-1.0015602 -0.39379773 1.8305051
-0.96690142 -0.38093898 1.4508783
-0.94708776 -0.37388438 1.1821188
-0.9447028 -0.37618375 1.0790474
-0.92476678 -0.36879629 0.88516104
-0.91081679 -0.36341232 0.72754866
-0.90226698 -0.36035812 0.59513074
-0.89188898 -0.35638848 0.4763687
-0.89117277 -0.3562772 0.37204644
-0.8756333 -0.35041401 0.2705352
-0.88289368 -0.35331663 0.17832085
-0.9334535 -0.37019017 0.97552752
-0.91908205 -0.36485445 0.80357164
-0.90310407 -0.35868913 0.6566357
-0.89928734 -0.3577103 0.53486103
-0.89118451 -0.35466206 0.42297181
-0.87169302 -0.34707615 0.31701031
-0.86943233 -0.34617329 0.22273649
-0.87231308 -0.34749112 0.13155322
-1.4949932 -0.56075561 10.150599
-1.3318223 -0.50668049 6.8741593
-1.2364137 -0.47724947 4.2840719
-1.1080785 -0.43080145 2.8603871
-1.0266051 -0.40076068 2.0869119
-0.98584992 -0.38602528 1.6275939
-0.96560544 -0.37867191 1.3184339
-0.83610463 -0.30345246 8.2525082
-1.3559725 -0.51771438 5.6257319
-1.1569322 -0.44609419 3.4261341
-1.0590214 -0.41065681 2.4123952
-1.0004982 -0.38935357 1.8262392
-0.9682253 -0.37756157 1.4508783
-0.94838709 -0.37057614 1.1821188
-0.94269228 -0.37157622 1.0755429
-0.92604852 -0.36556599 0.88516104
-0.91207975 -0.36023077 0.72754866
-0.90351933 -0.35720643 0.59513074
-0.8931275 -0.35327303 0.4763687
-0.88795048 -0.35139912 0.3706364
-0.87685114 -0.34735534 0.2705352
-0.87949163 -0.34839854 0.17787378
-0.93126434 -0.36556536 0.972202
-0.91658801 -0.36016589 0.80062848
-0.90435064 -0.35553452 0.6566357
-0.89630747 -0.35290638 0.53276294
-0.8880235 -0.34981841 0.42132831
-0.87289923 -0.34403124 0.31701031
-0.87063539 -0.34313628 0.22273649
-0.87352073 -0.34444407 0.13155322
-1.4925704 -0.55391246 10.120963
-1.3326299 -0.50166994 6.8692646
-1.2352831 -0.47186568 4.274528
-1.1077522 -0.42622957 2.8557847
-1.0257636 -0.3963117 2.0825229
-0.9845674 -0.38156494 1.623461
-0.96393335 -0.3741394 1.3145963
-0.83766061 -0.3007119 8.2574797
-1.3542439 -0.51164573 5.6112137
-1.1552577 -0.44082293 3.4167485
-1.0563834 -0.40539801 2.4033928
-0.99941736 -0.38492164 1.8219732
-0.96672612 -0.37309474 1.4468882
-0.94651282 -0.36604071 1.1784436
-0.94398355 -0.36828336 1.0755429
-0.92369348 -0.36091483 0.88202262
-0.90943718 -0.35552254 0.7248072
-0.90063554 -0.35243624 0.59281194
-0.89003837 -0.34846324 0.47449568
-0.88917172 -0.34829745 0.3706364
-0.87348503 -0.34249929 0.2696026
-0.88070244 -0.34532645 0.17787378
-0.93253475 -0.36231241 0.972202
-0.91783965 -0.35696423 0.80062848
-0.90156877 -0.35081246 0.65410256
-0.89753389 -0.34977552 0.53276294
-0.88923925 -0.34671652 0.42132831
-0.87409478 -0.34098217 0.31701031
-0.87182784 -0.34009513 0.22273649
-0.87006372 -0.33957642 0.13135168
-1.4901183 -0.54709309 10.091329
-1.334373 -0.49701512 6.8692646
-1.2355263 -0.46702325 4.2697558
-1.1074073 -0.4216651 2.851182
-1.0249038 -0.39187357 2.0781338
-0.98326582 -0.37711829 1.619328
-0.96224123 -0.36962315 1.3107588
-0.83920765 -0.29796425 8.2624512
-1.3524892 -0.50559545 5.5966954
-1.1535604 -0.43556878 3.4073629
-1.0557569 -0.40093541 2.3988914
-0.9983179 -0.38050202 1.8177074
-0.96802253 -0.36971799 1.4468882
-0.94778478 -0.36273453 1.1784436
-0.94193637 -0.36370158 1.0720384
-0.92494768 -0.35768834 0.88202262
-0.91067266 -0.35234582 0.7248072
-0.9018603 -0.34929028 0.59281194
-0.8912493 -0.34535432 0.47449568
-0.88590938 -0.34345758 0.3692264
-0.87467527 -0.33944815 0.2696026
-0.88190246 -0.34225011 0.17787378
-0.93030864 -0.35771516 0.96887648
-0.91530776 -0.35230637 0.79768533
-0.9027878 -0.34766331 0.65410256
-0.89874935 -0.34664041 0.53276294
-0.8904441 -0.34361035 0.42132831
-0.87527972 -0.33792895 0.31701031
-0.8776294 -0.33883333 0.22342718
-0.87124372 -0.33653724 0.13135168
-1.4876367 -0.54029763 10.061693
-1.3351444 -0.49200234 6.8643694
-1.2343526 -0.46166205 4.2602119
-1.105216 -0.41641966 2.8419769
-1.0240253 -0.38744622 2.0737445
-0.98194534 -0.37268543 1.615195
-0.96352565 -0.36626208 1.3107588
-0.84175169 -0.29556209 8.2773647
-1.3507091 -0.49956366 5.5821776
-1.1518406 -0.43033192 3.3979776
-1.055112 -0.39648208 2.3943901
-0.99719971 -0.37609476 1.8134414
-0.96648842 -0.3652716 1.4428982
-0.94587457 -0.35822338 1.1747683
-0.94320023 -0.36041138 1.0720384
-0.92619061 -0.3544575 0.88202262
-0.91189706 -0.34916484 0.7248072
-0.89893764 -0.34455472 0.59049314
-0.88812077 -0.3405813 0.47262263
-0.88262409 -0.33864474 0.36781636
-0.87126917 -0.33463171 0.26866996
-0.87844288 -0.33738413 0.1774267
-0.9280619 -0.35313791 0.96555102
-0.91653198 -0.3491092 0.79768533
-0.90399587 -0.34450987 0.65410256
-0.89571369 -0.34188277 0.53066492
-0.89604956 -0.34218463 0.42297181
-0.87645394 -0.33487159 0.31701031
-0.87880683 -0.33576778 0.22342718
-0.87241322 -0.33349398 0.13135168
-1.485857 -0.53378868 10.036996
-1.3358968 -0.48699024 6.8594737
-1.2331567 -0.45631483 4.250668
-1.1048322 -0.41187695 2.8373744
-1.0231285 -0.38302985 2.0693557
-0.98324025 -0.36925551 1.615195
-0.96179819 -0.36176825 1.3069214
-0.84227455 -0.29244742 8.2723932
-1.3489029 -0.49355042 5.5676589
-1.1517171 -0.4257105 3.3932846
-1.0544491 -0.3920382 2.389889
-0.99606287 -0.37169993 1.8091755
-0.96775758 -0.36189568 1.4428982
-0.9471193 -0.35491946 1.1747683
-0.94445252 -0.35711682 1.0720384
-0.92378217 -0.34984395 0.87888414
-0.90920007 -0.34449816 0.72206575
-0.90013486 -0.34141478 0.59049314
-0.88930422 -0.33747911 0.47262263
-0.88380086 -0.33556175 0.36781636
-0.87243193 -0.33158839 0.26866996
-0.87961525 -0.33431575 0.1774267
-0.92928898 -0.34989622 0.96555102
-0.91396272 -0.34448236 0.79474217
-0.90519297 -0.34135222 0.65410256
-0.89690161 -0.33875406 0.53066492
-0.89723849 -0.33905476 0.42297181
-0.87761754 -0.33181015 0.31701031
-0.87997353 -0.33269814 0.22342718
-0.87357199 -0.33044666 0.13135168
-1.4833181 -0.52703875 10.00736
-1.3375887 -0.48232412 6.8594737
-1.2333401 -0.45149454 4.2458959
-1.1025971 -0.40666613 2.8281696
-1.0244594 -0.37945613 2.0693557
-0.98188525 -0.36484113 1.6110622
-0.96305513 -0.35840875 1.3069214
-0.84278607 -0.28933275 8.2674227
-1.3470716 -0.48755598 5.5531406
-1.1499544 -0.42050269 3.3838992
-1.0537679 -0.38760373 2.3853879
-0.99735433 -0.36822075 1.8091755
-0.96618885 -0.35746998 1.4389081
-0.9483524 -0.35161123 1.1747683
-0.94235319 -0.35256836 1.0685339
-0.92499781 -0.34661722 0.87888414
-0.91039711 -0.34132236 0.72206575
-0.90132111 -0.3382706 0.59049314
-0.88613677 -0.33274323 0.47074962
-0.88047618 -0.33078766 0.36640632
-0.86898619 -0.32681185 0.26773736
-0.88077688 -0.33124325 0.1774267
-0.92700577 -0.34534696 0.9622255
-0.91515964 -0.34128994 0.79474217
-0.90234011 -0.33668357 0.65156937
-0.89382732 -0.33403257 0.52856684
-0.89841658 -0.33592072 0.42297181
-0.87877047 -0.32874468 0.31701031
-0.8811295 -0.32962441 0.22342718
-0.87939906 -0.32914656 0.13155322
-1.4836825 -0.52134293 9.9974823
-1.3383051 -0.47731024 6.8545785
-1.2321014 -0.44617042 4.236352
-1.1021745 -0.40214533 2.8235669
-1.0235287 -0.37505391 2.0649664
-0.98051155 -0.36044073 1.6069292
-0.96129239 -0.35393757 1.3030838
-0.84328604 -0.28621805 8.2624512
-1.345215 -0.48158032 5.5386224
-1.1497924 -0.41589919 3.3792064
-1.0530688 -0.38317883 2.3808868
-0.99618369 -0.36384249 1.8049095
-0.96743077 -0.35409516 1.4389081
-0.94639117 -0.34713146 1.1710931
-0.94357812 -0.34927678 1.0685339
-0.92255235 -0.34203333 0.87574571
-0.90766251 -0.33668828 0.71932429
-0.90249646 -0.33512235 0.59049314
-0.88729286 -0.32964802 0.47074962
-0.88162541 -0.32771221 0.36640632
-0.87012172 -0.32377654 0.26773736
-0.88192773 -0.32816678 0.1774267
-0.92820555 -0.34210899 0.9622255
-0.91634536 -0.33809334 0.79474217
-0.90350991 -0.33353177 0.65156937
-0.89498788 -0.33091047 0.52856684
-0.90401256 -0.33442092 0.42461532
-0.87535423 -0.32398808 0.31583801
-0.88227475 -0.3265467 0.22342718
-0.88054264 -0.3260749 0.13155322
-1.4810894 -0.51463139 9.9678469
-1.3390027 -0.47229722 6.8496833
-1.2294353 -0.44035733 4.2220359
-1.1017339 -0.39763254 2.8189645
-1.02258 -0.3706629 2.0605774
-0.98176378 -0.35701594 1.6069292
-0.96252203 -0.35057989 1.3030838
-0.83973098 -0.2817488 8.2177076
-1.3433329 -0.47562355 5.5241041
-1.1496124 -0.411302 3.3745136
-1.0523515 -0.37876353 2.3763855
-0.99744773 -0.36036298 1.8049095
-0.96582758 -0.34969038 1.4349182
-0.94759709 -0.34382582 1.1710931
-0.94144267 -0.34475479 1.0650293
-0.92374068 -0.33881095 0.87574571
-0.90883225 -0.33351791 0.71932429
-0.90366071 -0.33197004 0.59049314
-0.88843817 -0.32654878 0.47074962
-0.87826174 -0.32297716 0.36499628
-0.87124658 -0.32073727 0.26773736
-0.88306785 -0.32508627 0.1774267
-0.92588621 -0.33758801 0.95890003
-0.91372287 -0.33350688 0.79179901
-0.90466863 -0.33037588 0.65156937
-0.89613748 -0.32778439 0.52856684
-0.90517443 -0.33126327 0.42461532
-0.8764798 -0.32093054 0.31583801
-0.8834092 -0.32346499 0.22342718
-0.88167548 -0.32299924 0.13155322
-1.474058 -0.50643039 9.9085751
-1.3406432 -0.46762034 6.8496833
-1.2267439 -0.43456835 4.2077203
-1.1012751 -0.39312768 2.8143618
-1.0238677 -0.36709118 2.0605774
-0.98035592 -0.35263446 1.6027963
-0.96072435 -0.34613165 1.2992463
-0.84020323 -0.27864832 8.2127361
-1.3426121 -0.47010106 5.5144253
-1.1477872 -0.40613565 3.365128
-1.0516163 -0.37435797 2.3718843
-0.9962436 -0.35600162 1.8006437
-0.96420544 -0.34530115 1.4309281
-0.94560051 -0.33937094 1.167418
-0.93928736 -0.34025198 1.0615247
-0.92125875 -0.33425698 0.87260723
-0.9060604 -0.32891676 0.71658283
-0.904814 -0.32881364 0.59049314
-0.88521576 -0.32186151 0.46887657
-0.8793838 -0.31990945 0.36499628
-0.87236089 -0.3176941 0.26773736
-0.88419729 -0.32200181 0.1774267
-0.92705899 -0.33435398 0.95890003
-0.91488147 -0.33031535 0.79179901
-0.90176195 -0.32575154 0.64903617
-0.89300841 -0.32311019 0.52646881
-0.90632522 -0.32810161 0.42461532
-0.87759477 -0.31786913 0.31583801
-0.88453293 -0.32037935 0.22342718
-0.87810057 -0.31821749 0.13135168
-1.45963 -0.49578723 9.7999115
-1.3413047 -0.46260595 6.8447886
-1.2240269 -0.42880347 4.1934042
-1.1007985 -0.38863096 2.8097594
-1.0228854 -0.36271468 2.0561883
-0.98158091 -0.3492102 1.6027963
-0.96192682 -0.34277603 1.2992463
-0.84117079 -0.27571377 8.2127361
-1.3406816 -0.46417835 5.499907
-1.1475691 -0.40155688 3.3604355
-1.050863 -0.3699621 2.367383
-0.9950211 -0.35165304 1.7963778
-0.96256453 -0.34092751 1.4269381
-0.94677943 -0.33606812 1.167418
-0.94046932 -0.33697119 1.0615247
-0.91875637 -0.32972452 0.86946881
-0.90720308 -0.32575202 0.71658283
-0.90178758 -0.32415488 0.58817434
-0.88633382 -0.31876957 0.46887657
-0.87598139 -0.31521374 0.36358625
-0.87346452 -0.31464705 0.26773736
-0.88531584 -0.3189134 0.1774267
-0.92470366 -0.32986155 0.95557451
-0.91222239 -0.3257606 0.78885585
-0.90289354 -0.32260182 0.64903617
-0.89413083 -0.31999105 0.52646881
-0.90746498 -0.32493594 0.42461532
-0.8741231 -0.3131645 0.31466568
-0.88098395 -0.31561965 0.22273649
-0.879206 -0.31515041 0.13135168
-1.4598783 -0.49019471 9.7900333
-1.3429114 -0.45792115 6.8447886
