# .PCD v0.7 - Point Cloud Data file format
VERSION 0.7
FIELDS x y z
SIZE 4 4 4
TYPE F F F
COUNT 1 1 1
WIDTH 1596
HEIGHT 1
VIEWPOINT 0 0 0 1 0 0 0
POINTS 1596
DATA ascii
0.43024501 0.58727598 4.6285086
5.2304511 7.2791958 28.702312
3.7436731 5.2524605 11.887726
6.5729027 9.2422562 16.729389
0.18258785 0.22618653 4.8662953
0.30856729 0.41198733 4.7575407
3.301698 4.5597448 21.711979
6.0252256 8.3790331 28.119469
4.4017844 6.1620998 12.456947
9.5116987 13.33502 21.764091
5.1220465 7.191545 9.6496983
5.8988061 8.3343487 10.113768
4.3788562 6.1937079 6.1985679
5.4166641 7.6644578 6.2378955
5.7171903 8.0956736 5.2744689
14.375197 20.385712 4.8273172
12.95463 18.371178 2.1110437
4.2338524 5.9642925 6.5956225
4.900713 6.9113402 5.0643668
5.8452616 8.2525425 4.7624369
8.7049961 12.294537 5.3321333
16.191328 22.876322 6.8503356
13.617725 19.240141 3.3798351
12.863479 18.181206 0.99209023
0.043239579 0.035522416 4.899087
0.4322924 0.58577055 4.6285086
5.2715836 7.2826591 28.788208
3.7619848 5.2393608 11.887726
6.5854568 9.1918058 16.679792
0.18337627 0.22554779 4.8662953
0.31000352 0.41090775 4.7575407
6.0513997 8.3537579 28.105392
3.2822642 4.5611596 9.2617626
9.5406055 13.277267 21.724192
5.182693 7.2232022 9.7158508
5.9071579 8.2846699 10.078722
4.4027076 6.1815557 6.2017064
7.5411806 10.591941 8.6092634
5.8404303 8.209219 5.3602643
8.0582323 11.33069 5.7058764
9.1476183 12.867219 4.7304583
14.477564 20.379459 4.8375764
13.099433 18.439522 2.1235619
4.2285829 5.913033 6.555717
11.932817 16.69841 15.027866
8.8036995 12.324176 8.9857273
5.8529434 8.2025328 4.7456522
8.6189766 12.083389 5.2548885
16.299303 22.859241 6.8620586
13.713552 19.232809 3.3867419
12.929765 18.140261 0.99229175
0.04336331 0.035371263 4.899087
0.43433446 0.58425796 4.6285086
3.9786077 5.4562831 21.635006
3.8041131 5.2591863 11.962339
5.0562587 7.0056362 12.761758
0.18434612 0.22512905 4.8712873
0.31143594 0.40982312 4.7575407
3.4183025 4.6520538 22.263672
6.0815401 8.3339767 28.110085
3.299696 4.5517859 9.2660284
5.4082012 7.4712443 12.287785
5.2495809 7.2627654 9.7930288
4.8354297 6.7317724 8.2248173
4.3947601 6.1250377 6.1609068
8.5504999 11.921274 9.7031088
5.9542098 8.3076 5.4367847
8.1841345 11.423085 5.7658134
9.2539272 12.921008 4.7614784
14.580059 20.372742 4.8478346
13.233276 18.490877 2.1342916
4.2513795 5.9012656 6.559042
11.939077 16.584486 14.963118
8.7509832 12.160409 8.8894663
5.8815398 8.1820526 4.7456522
8.5481243 11.896003 5.1875048
16.415861 22.853527 6.8772988
13.809495 19.225042 3.3936486
13.001751 18.107195 0.99289638
0.043547921 0.035143729 4.899087
0.43795639 0.58252031 4.6334481
4.016995 5.4447875 21.677954
3.8504004 5.2610502 12.015009
5.063324 6.9309521 12.679099
5.658 7.7534661 11.568408
0.18571791 0.22399876 4.8712873
0.31400478 0.40785822 4.7575407
3.469985 4.6607308 22.408857
6.1348095 8.2969894 28.114777
3.3182106 4.5156713 9.236167
5.4064217 7.3681402 12.176064
5.3116627 7.2469301 9.8187551
5.7277465 7.8865418 9.6581764
4.4164038 6.0854197 6.1452141
5.49649 7.5764413 6.221447
5.9730697 8.239398 5.4135966
8.2641306 11.399719 5.7770519
9.413209 12.989539 4.8051896
14.728854 20.332188 4.8580937
13.40706 18.500738 2.1441274
4.2961531 5.8872499 6.5723443
5.9850588 8.2076149 6.0548396
5.9449453 8.1585732 4.7540445
8.5302372 11.710778 5.1316252
16.561346 22.736294 6.8749542
13.965851 19.173059 3.4005554
13.112933 18.002121 0.99209023
0.043670326 0.034991506 4.899087
0.43988574 0.58106476 4.6334481
4.0269604 5.422554 21.639776
3.8882179 5.2778506 12.080845
4.560513 6.2039599 11.381353
5.6752887 7.7288933 11.556895
0.18648931 0.22373289 4.8762789
0.31532699 0.40751106 4.7625117
3.5099814 4.6904793 22.592754
6.1540356 8.2805891 28.110085
4.5599961 6.1761236 12.627584
5.4249134 7.3582792 12.180054
5.3288383 7.2385197 9.8224306
5.7447124 7.8521099 9.6406536
4.4273734 6.0581708 6.1326604
5.4475851 7.4568801 6.1392026
6.00036 8.2195454 5.4135966
9.487895 13.006408 4.8221097
14.820947 20.332062 4.8683524
13.488007 18.503469 2.1485982
4.3115511 5.8759823 6.5723443
6.9016633 9.4127407 8.582345
6.0143828 8.2146406 4.7939076
8.3615599 11.424652 5.0165796
14.038141 19.187731 3.4081531
13.14747 17.976913 0.99209023
0.043731336 0.034915235 4.899087
0.44089916 0.58029616 4.6334481
3.9837449 5.3467975 21.363003
3.8856208 5.2589331 12.050121
4.5781059 6.2119756 11.406151
5.6733255 7.7064676 11.533871
0.18668449 0.22357006 4.8762789
0.3160094 0.40765676 4.7674837
3.518532 4.6950688 22.626629
6.1649666 8.2832127 28.133549
4.5477271 6.1527624 12.584925
5.4382153 7.3709335 12.203993
5.3333759 7.2393889 9.8261061
5.7584081 7.8420711 9.6406536
8.1377935 11.098615 11.179298
8.5343752 11.643734 9.5495863
6.2002468 8.468503 5.5805507
8.0857849 11.047857 5.6197171
14.877661 20.357565 4.8786116
13.537047 18.523163 2.1526217
4.3299465 5.8902678 6.5922971
6.893878 9.3883705 8.5646858
5.9878569 8.1574955 6.0320411
7.6088495 10.377199 6.0359545
8.437314 11.515501 5.0576673
14.074092 19.222786 3.4150596
13.212758 18.052954 0.99612087
0.043907493 0.034693446 4.899087
0.44393155 0.57797968 4.6334481
3.92732 5.2518106 12.085235
4.6058669 6.1703634 11.381353
5.772027 7.741045 11.637484
0.18820193 0.22229418 4.8762789
0.31910673 0.40591514 4.7724552
3.5420938 4.6583843 22.568556
6.2272024 8.2430162 28.147627
4.5848789 6.1088314 12.563596
5.3888125 7.1982179 9.8261061
5.8044024 7.8214159 9.6511669
8.139761 10.976262 11.100838
8.5125828 11.483179 9.4563761
6.3265514 8.5405283 5.6501145
8.1272049 10.971302 5.604733
15.030963 20.305786 4.8879375
13.688728 18.485769 2.1579869
4.388999 5.8883638 6.6222267
6.9592533 9.3400145 8.5646858
6.0807104 8.1638947 6.0675058
7.6151667 10.231466 5.9835033
8.3374147 11.201842 4.9491959
14.250856 19.15387 3.4219666
13.377994 17.98069 0.99773306
0.043980062 0.034601409 4.899087
0.44456565 0.5765112 4.6285086
3.9403968 5.2539854 12.10279
4.6134019 6.1647315 11.381353
5.7782116 7.732429 11.633646
0.18831831 0.2221956 4.8762789
0.31964922 0.40616661 4.7774267
3.5437195 4.6571474 22.568556
6.2328033 8.2474365 28.166399
4.6020999 6.1317763 12.610521
5.2241201 6.9706402 11.60948
5.3863001 7.2000985 9.8261061
5.8697906 7.8750072 9.7317724
8.0380602 10.799675 10.937637
5.7495708 7.7277598 6.399642
6.0704346 8.1679296 5.4135966
15.085034 20.326853 4.897264
13.743692 18.519411 2.1633518
4.5003157 6.0289187 6.7818503
6.9576807 9.3311043 8.5587997
6.0835605 8.1617718 6.0675058
7.649477 10.27382 6.0086799
8.3148594 11.171536 4.9360476
14.274112 19.192118 3.4281828
13.398544 18.021442 0.99954689
0.044154629 0.034378365 4.899087
0.44710025 0.57356304 4.6235695
4.0860109 5.3406582 21.544338
4.6431055 6.1282749 11.36482
5.8137326 7.6816535 11.61062
0.18978782 0.22094175 4.8762789
0.32266876 0.40445411 4.7823977
3.5830173 4.642869 22.616951
6.2923293 8.206461 28.175783
3.897496 5.1034069 13.341342
3.749754 4.92238 10.191736
5.2221589 6.8626184 11.49377
5.4463367 7.1675701 9.8371315
6.0812321 8.0730782 10.012136
7.8950624 10.488585 10.66773
5.7938113 7.6998792 6.4023838
6.1186199 8.1374397 5.4159155
8.1971464 10.901748 5.5991135
15.226046 20.264469 4.9037924
13.889477 18.478899 2.1682696
4.5909681 6.0682168 6.8583374
7.0210342 9.2835293 8.5587997
6.1415744 8.1236124 6.0700393
7.7812023 10.299836 6.0548372
8.3775091 11.089145 4.9261866
14.435303 19.114632 3.4330175
13.560512 17.956261 1.0013607
0.044274364 0.034224022 4.899087
0.44755986 0.57024413 4.6087518
2.9591408 3.8042834 23.194847
4.0936608 5.3159685 21.496616
4.6561503 6.1077585 11.352423
0.19036558 0.22044414 4.8762789
0.32406035 0.4040235 4.7873693
3.592078 4.6295009 22.597593
6.3155222 8.1951618 28.189861
3.9126055 5.097322 13.350345
5.2377167 6.8507524 11.49377
5.4667001 7.160584 9.8444815
6.2473378 8.2336254 10.236426
4.7792964 6.3056879 6.4621983
5.8294144 7.6939549 6.4133492
6.1455708 8.1171045 5.4159155
8.2313547 10.875942 5.5991135
9.7858 12.934479 4.8573608
15.345352 20.297573 4.9224448
13.974061 18.48374 2.1731875
4.6870332 6.1593676 6.9747295
7.0306339 9.2458105 8.5411406
6.1289072 8.062892 6.0371075
7.822814 10.302479 6.0674253
8.4083576 11.077631 4.9294739
14.544487 19.168617 3.4482121
13.628282 17.967627 1.003376
0.044393558 0.03406927 4.899087
0.45051187 0.56989712 4.6186304
2.983078 3.8075562 23.278067
4.109447 5.2981081 21.482302
4.6705861 6.08254 11.335891
5.716908 7.4532075 11.322808
0.19094373 0.2195611 4.8712873
0.32546872 0.40288988 4.7873693
6.3451476 8.1744289 28.194553
3.7852685 4.9083028 10.208799
5.2450519 6.8109412 11.457859
5.499928 7.1522074 9.8591824
6.3085237 8.2542696 10.288995
4.787107 6.2704043 6.4433675
8.1215982 10.641896 8.8614788
6.1658087 8.0850353 5.4089594
8.0640955 10.578009 5.4623823
9.8599672 12.938396 4.8714614
15.457776 20.298599 4.9355011
14.071685 18.47843 2.1781056
4.7107768 6.1459327 6.978055
7.0554924 9.211587 8.5323114
6.1150837 7.9866848 5.9965768
7.8780289 10.300344 6.0821118
8.4355021 11.033207 4.9228997
14.851877 19.432495 3.5034668
13.718215 17.955675 1.0051898
0.044549219 0.033937216 4.9040866
0.45734069 0.57439768 4.6680231
2.996351 3.7971201 23.278067
4.1132121 5.2649107 21.405951
4.7021198 6.0795555 11.360688
5.737011 7.4255972 11.311296
0.19170897 0.21889324 4.8712873
0.32720986 0.40216458 4.7923412
3.6250875 4.605298 22.602432
6.3800206 8.160388 28.222712
3.7991786 4.8909402 10.200268
5.2706409 6.7949724 11.461849
5.5310879 7.1410055 9.8702068
4.8350654 6.2875967 6.477891
7.8630829 10.228928 8.5434685
6.3586035 8.2777557 5.550406
8.1122646 10.564504 5.4698744
9.7969952 12.763104 4.8192897
15.573382 20.30298 4.9494905
14.172472 18.476614 2.1834705
4.786963 6.2003822 7.0578671
8.4628382 10.96946 10.171651
6.1113353 7.9243283 5.9661789
6.7146196 8.7160006 5.173655
8.4768457 11.007436 4.9245434
15.327424 19.910273 3.5967085
13.811276 17.947273 1.007205
0.044667412 0.033781502 4.9040866
0.45545214 0.56794995 4.6285086
3.0076861 3.7842464 23.26338
4.0955644 5.204772 21.219843
4.6147628 5.9110188 13.810143
4.7198539 6.0586653 11.352423
5.7727385 7.4181738 11.330482
0.19228016 0.21800686 4.8662953
0.32894987 0.40143198 4.7973127
6.4159408 8.1475582 28.25556
3.8210495 4.883811 10.213066
5.3017483 6.7860303 11.477809
5.5476403 7.1109638 9.8555069
6.7899408 8.756772 10.968877
4.8498335 6.2614489 6.4684753
6.9234023 8.9417505 7.49897
8.0057955 10.347128 6.9347301
8.367485 10.818485 5.6140976
9.8884344 12.78955 4.8418503
15.686205 20.302917 4.9625468
14.270374 18.470381 2.1883883
4.9529777 6.3693256 7.267374
6.1178031 7.8757129 5.9459133
6.7338743 8.6781664 5.1652627
8.5152159 10.977779 4.9245434
15.594074 20.111023 3.641603
13.904445 17.938438 1.0092204
0.04478506 0.033625379 4.9040866
2.3310735 2.9120924 17.956953
4.1081443 5.1834254 21.19121
4.6501727 5.9137001 13.854033
4.7513967 6.0554361 11.37722
0.19303998 0.21733436 4.8662953
0.33068871 0.40069208 4.8022838
6.4529209 8.1359291 28.293102
3.8493738 4.8847823 10.242928
5.3235402 6.7651138 11.473819
5.5787125 7.0995526 9.8665323
6.7853446 8.6880474 10.912804
4.9315157 6.3212032 6.5469365
6.9648581 8.9307175 7.5099359
7.9874043 10.249237 6.8883538
8.4023476 10.785554 5.6122246
9.8917542 12.701967 4.8221097
15.796199 20.298437 4.9746714
14.374518 18.471544 2.1942003
5.1225295 6.540122 7.4802055
6.9099116 8.8284492 8.2468243
6.0602527 7.745666 5.8648515
6.655127 8.5151463 5.0834384
8.553484 10.947989 4.9245434
15.398991 19.716919 3.5815136
13.997723 17.929174 1.0112357
0.044864912 0.033446118 4.899087
2.3431423 2.9063158 17.97164
4.1262126 5.1690536 21.19121
3.9689286 5.011272 11.782388
4.7759943 6.0432291 11.385486
0.19379745 0.2166592 4.8662953
0.33208537 0.3995353 4.8022838
3.8735559 4.8681369 12.927231
3.8647799 4.8692727 10.238661
6.1806159 7.8570604 9.9034948
5.0208879 6.3896441 6.6348138
7.0089045 8.9227924 7.523643
7.916461 10.085397 6.7979207
8.1938305 10.442503 5.4511437
9.995245 12.742851 4.8503108
15.906352 20.293434 4.9867954
14.475775 18.46829 2.1995652
5.200829 6.5925541 7.5600176
6.9331803 8.7947531 8.2379951
6.1085987 7.7515507 5.8851166
6.6455088 8.4419384 5.0540662
8.6150103 10.947752 4.9376912
15.354439 19.519039 3.5559585
14.094193 17.923403 1.0134525
0.044944059 0.033266708 4.8940868
3.0375209 3.7406871 23.189953
4.1498432 5.1615992 21.219843
4.0282159 5.0498104 11.905282
4.8040705 6.0353274 11.402018
0.19455256 0.21598141 4.8662953
0.333478 0.39837366 4.8022838
3.6850781 4.5493517 22.578236
6.519299 8.1027822 28.335339
3.886441 4.8494897 12.913728
3.8833816 4.85779 10.242928
5.9628105 7.4695845 12.730677
6.1162891 7.6728029 10.715495
10.451334 13.191108 16.618204
5.0600705 6.3934436 6.6567826
7.9351335 10.036853 6.7840075
8.6355381 10.926676 5.7152419
10.039664 12.707884 4.8503108
16.019707 20.291765 4.9998517
14.580268 18.468462 2.2053771
5.2563291 6.6152854 7.606575
6.9789176 8.7894907 8.2556543
6.1677799 7.7706981 5.9155149
6.6749363 8.4186897 5.0540662
8.7089024 10.987928 4.9689178
15.351748 19.376049 3.5400729
14.19079 17.917175 1.0156693
0.045059908 0.033109624 4.8940868
3.0466921 3.7253325 23.16058
5.6426773 6.9683604 28.711857
4.7238445 5.8796163 13.889145
4.830389 6.0251079 11.414416
0.19549999 0.21551412 4.8712873
0.33486655 0.3972072 4.8022838
3.6993468 4.5345125 22.568556
6.5421104 8.0732727 28.311872
3.8910391 4.8206487 12.873217
3.9003153 4.8442044 10.242928
5.9246521 7.3688817 12.595016
6.1918507 7.7122083 10.800024
10.415013 13.05141 16.488537
5.1187496 6.4213953 6.7038593
7.6807961 9.6388588 8.1651459
7.9590821 9.9952307 6.7747326
8.7717915 11.019787 5.7789245
9.8987751 12.440032 4.7628889
16.133242 20.289551 5.0129085
14.684938 18.468126 2.2111893
5.2980523 6.6202183 7.6331792
10.642282 13.30758 12.490862
6.1948667 7.7491217 5.9155149
6.7524281 8.4556284 5.0897331
8.7177439 10.920556 4.9524827
15.338981 19.221704 3.522115
14.287518 17.910492 1.0178862
0.045137726 0.032929797 4.8890877
3.0538509 3.7076018 23.116524
5.6782885 6.9625025 28.769121
4.7594056 5.8817096 13.933036
4.8566947 6.0147786 11.426816
5.959682 7.3886452 11.441771
0.19644652 0.21504286 4.8762789
0.33625105 0.39603585 4.8022838
3.7007885 4.5040913 22.481447
6.5822539 8.065093 28.363493
3.9064693 4.8053479 12.868715
3.918843 4.8325858 10.247193
5.650723 6.9781609 11.964592
6.1398635 7.5930114 10.664043
9.846118 12.250555 15.524787
5.172812 6.4429455 6.7446594
7.6751366 9.5630741 8.1240244
8.8131037 10.992718 5.7807975
9.8971395 12.349255 4.7417378
16.243887 20.282955 5.0250325
14.789785 18.467287 2.2170014
5.3375306 6.6220336 7.6564574
10.749522 13.345901 12.561499
8.206255 10.191991 7.7748685
6.8302584 8.4921274 5.1253996
9.5399265 11.865303 5.3880129
15.316017 19.056108 3.5020854
14.384369 17.903349 1.020103
0.045289956 0.032794241 4.8940868
3.0706751 3.7016211 23.145895
5.7025571 6.9426394 28.769121
4.7844472 5.8706298 13.946204
4.882987 6.0043378 11.439214
5.9793735 7.3603334 11.430258
0.19719596 0.21435583 4.8762789
0.3376314 0.3948597 4.8022838
3.7132823 4.4872723 22.46209
3.9245987 4.7933669 12.873217
3.9373384 4.8208971 10.251459
5.6426706 6.9186964 11.896762
5.9864988 7.3507233 10.35533
9.8820896 12.207796 15.514274
5.1634545 6.3855038 6.7038593
7.8346443 9.6923141 8.2556143
6.5700831 8.1337147 5.5596814
8.8426847 10.951067 5.7751789
10.169175 12.598321 4.8489003
16.357765 20.279659 5.0380893
14.891676 18.462061 2.2223663
5.2947216 6.5221953 7.563343
7.5671358 9.3280334 8.8295698
8.1223116 10.015962 7.6634083
6.8598595 8.4682331 5.1253996
9.4980764 11.729175 5.3419943
15.472798 19.114151 3.522115
14.481347 17.895752 1.0223199
0.045441795 0.032658022 4.899087
3.0927174 3.7018192 23.214428
4.7669215 5.8076129 13.836476
4.9092655 5.9937882 11.451613
6.0050297 7.3394165 11.430258
0.19813994 0.21387728 4.8812709
0.33900765 0.39367875 4.8022838
3.7297282 4.4752483 22.466928
6.6516037 8.0348949 28.419806
3.9551566 4.7964339 12.918229
3.9541423 4.8071241 10.251459
5.959415 7.2552094 12.507236
5.7283201 6.9837847 9.8702068
12.642354 15.50666 19.740755
5.20046 6.3855491 6.7226901
7.8710699 9.6681499 8.2583561
6.592844 8.103858 5.5550437
8.997858 11.064 5.8501
10.234273 12.588804 4.8587708
16.471817 20.275814 5.051146
14.993711 18.45635 2.2277312
5.2323747 6.3996124 7.4436255
7.6175523 9.3234739 8.850173
7.7700071 9.5134487 7.3036971
6.7373161 8.2578564 5.0142031
15.720918 19.282637 3.5621746
14.578444 17.887691 1.0245367
0.045593232 0.032521144 4.9040866
3.1029975 3.6878843 23.194847
4.3185992 5.1835737 21.615917
4.8543081 5.8721576 14.029596
4.9319487 5.978786 11.455747
0.19908296 0.21339475 4.8862619
0.34037977 0.39249298 4.8022838
3.745327 4.4622021 22.466928
6.6696649 7.9996991 28.377573
3.9468398 4.7524538 12.837207
3.9792173 4.8033338 10.272788
5.9866242 7.2366843 12.511226
5.7310724 6.9376106 9.833456
12.746194 15.523071 19.817856
8.8698292 10.81759 9.2562494
6.5817862 8.0328245 5.5225806
8.9512348 10.928518 5.7957821
16.582932 20.267616 5.0632701
15.095887 18.450151 2.2330961
5.1051531 6.1997232 7.2341185
7.7219639 9.3842182 8.9325809
9.6626244 11.746789 9.0237255
6.774744 8.2448092 5.0204973
10.03532 12.217226 5.5918083
15.841554 19.292706 3.573916
14.678831 17.883034 1.0269551
0.045744266 0.03238361 4.9090867
3.1132185 3.673923 23.175266
5.8114071 6.9259949 28.950455
3.9967027 4.8005319 11.514653
4.9653764 5.9766846 11.484676
5.0305882 6.061615 9.5076675
0.19982661 0.21269852 4.8862619
0.34174779 0.39130247 4.8022838
3.7608802 4.4491014 22.466928
6.7019873 7.9816551 28.396343
3.9368677 4.7069206 12.751683
4.0026431 4.7974248 10.289853
6.0774288 7.2944551 12.646886
5.7747684 6.9410176 9.8665323
12.82303 15.505966 19.852901
5.1829386 6.2740679 6.6442285
8.7983713 10.654372 9.1438494
6.5900497 7.9858851 5.5063491
8.9362268 10.832835 5.7620678
16.694189 20.25889 5.0753942
15.191869 18.435778 2.2375669
5.1529822 6.2134795 7.2706995
11.308793 13.645775 12.988256
9.6980686 11.706348 9.0186596
6.8034825 8.2211103 5.0204973
10.231415 12.367683 5.6756268
15.968764 19.309799 3.587039
14.779363 17.877893 1.0293734
0.045857023 0.032223735 4.9090867
2.4114797 2.8258176 17.883526
5.8673425 6.9432907 29.107931
4.0026631 4.7737045 11.48393
4.9970436 5.9722648 11.509474
5.0434942 6.0341811 9.4923182
0.20076698 0.21220872 4.8912539
0.3431116 0.39010715 4.8022838
3.7780173 4.4378605 22.476608
6.7298074 7.9582119 28.396343
3.961689 4.7031398 12.778691
4.0193648 4.7834234 10.289853
5.4268823 6.4676037 11.254368
6.7308617 8.0329895 11.439503
12.899901 15.488515 19.887947
7.5921588 9.1253967 9.6540089
8.2232161 9.887393 8.5160542
6.6065593 7.9492049 5.4970737
8.9058475 10.719561 5.7189875
16.808723 20.253414 5.0884509
15.275211 18.405628 2.2402494
5.1722465 6.1925893 7.267374
11.402978 13.662074 13.041232
9.7250643 11.655875 9.0059938
6.9309344 8.3158484 5.0918312
16.051916 19.272964 3.5904925
14.880039 17.872269 1.0317918
0.045969229 0.032063466 4.9090867
2.4180105 2.8135219 17.859051
4.3697414 5.134656 21.601601
4.0502071 4.7963004 11.571712
5.0287404 5.9676971 11.534272
5.0459495 5.9944701 9.4577808
0.2015065 0.21150662 4.8912539
0.34447122 0.3889071 4.8022838
3.8033032 4.4360967 22.534681
3.9724486 4.682642 12.760686
5.4883237 6.4946518 11.334168
6.855063 8.1234455 11.60121
6.1562147 7.339365 9.4934626
7.596468 9.0660229 9.6194859
8.2335138 9.8297777 8.4913807
8.9610624 10.709741 5.730226
16.920273 20.243614 5.100575
15.374496 18.394226 2.2451673
5.1073041 6.0716333 7.1476555
7.8926334 9.3894768 9.0149899
9.5382862 11.35123 8.7982731
6.9511657 8.2811747 5.0855365
16.131824 19.231991 3.5932553
14.980853 17.866156 1.0342102
0.046042852 0.031881396 4.9040866
2.4238183 2.8004453 17.829678
4.3759813 5.1057711 21.544338
3.7877047 4.4632535 8.6701384
5.0544076 5.9621506 9.4347553
0.20244415 0.21100956 4.8962455
0.34582666 0.38770229 4.8022838
3.8072641 4.4094739 22.466928
4.8325934 5.6344967 20.240316
3.9788713 4.6571617 12.729177
4.3673177 5.1244445 11.083317
5.6242323 6.6085472 11.56559
6.1564803 7.2878637 9.4549131
7.6607013 9.0781212 9.6602859
8.9983912 10.678396 5.730226
5.6219025 6.6738811 2.6548896
17.041449 20.244558 5.1154971
15.428989 18.329018 2.2438259
5.1357074 6.0623159 7.1576324
7.9436421 9.3834629 9.0355911
9.5138025 11.242182 8.7400103
6.9097095 8.1736765 5.0351834
5.3952403 6.3844304 2.9983506
16.13175 19.096123 3.5787511
15.081808 17.85956 1.0366286
0.046153862 0.031720482 4.9040866
4.3635406 5.0554357 21.396406
3.8014328 4.447865 8.6660061
5.0689445 5.9371581 9.4232426
0.20317948 0.21030162 4.8962455
0.34717789 0.38649279 4.8022838
3.7962389 4.3658056 22.312067
4.8714089 5.6397943 20.320093
4.0050426 4.6547952 12.760686
4.4412332 5.1744761 11.224092
5.6433444 6.5842991 11.55761
6.1472192 7.2255859 9.4023447
7.7704825 9.1432686 9.7575779
4.8582668 5.7185965 5.0042357
8.4984665 10.010455 6.9602365
9.0416098 10.65399 5.7339716
5.6482677 6.6578746 2.6562996
17.159658 20.241152 5.1294861
15.583045 18.381411 2.2563443
5.1592607 6.0471921 7.1609578
7.9737258 9.352602 9.0326481
9.4998589 11.146567 8.6918793
6.849936 8.0458355 4.9722419
5.4021907 6.347578 2.9901328
16.118086 18.945404 3.5614841
15.186133 17.856279 1.0392485
0.046264302 0.03155918 4.9040866
4.3155475 4.964694 21.076681
3.798578 4.4132414 8.6246758
5.0791898 5.9072762 9.4040556
0.20391233 0.20959112 4.8962455
0.3485249 0.38527852 4.8022838
3.8031738 4.343071 22.263672
4.8729444 5.6019239 20.245008
3.989903 4.6045923 12.661659
4.4592681 5.1589413 11.224092
5.5009036 6.3729544 11.222447
6.1724038 7.2040839 9.4023447
5.5371494 6.4694953 6.9486594
4.8781991 5.7016029 5.0042357
8.3376064 9.7517776 6.8025584
5.6901703 6.6600013 2.6647596
17.284433 20.24464 5.1453409
15.692384 18.379927 2.2626035
5.185205 6.0348101 7.1676092
13.053995 15.203541 14.674686
9.0192966 10.508183 8.2232409
6.9045668 8.0528851 4.9911246
5.4120231 6.3143406 2.9835591
16.290447 19.013121 3.5842762
15.27112 17.829721 1.0406592
0.046335943 0.031376481 4.899087
2.044313 2.3126357 14.863171
4.3004045 4.9125361 20.919207
5.2645297 6.0435214 18.941608
4.7921476 5.5167537 13.459016
3.7973711 4.3808174 8.5874796
5.0934844 5.8822412 9.3925428
0.20484547 0.2090836 4.9012375
0.34986764 0.38405961 4.8022838
3.862376 4.3797336 22.520163
4.000226 4.5840759 12.643654
4.449851 5.1118712 11.155838
5.2661228 6.0580769 10.703745
5.9255304 6.8262377 9.8775578
6.2021723 7.1878948 9.4093542
5.4682126 6.3439903 6.8356748
4.8352938 5.6116834 4.9411821
4.7668219 5.5380597 3.0405507
5.6727095 6.5928264 2.6464295
17.403032 20.240053 5.1593299
15.83112 18.411886 2.2728863
5.2062387 6.0166736 7.1676092
13.09641 15.145651 14.662914
9.1010256 10.528816 8.263772
9.0801363 10.515761 6.5101147
16.505531 19.128607 3.6160476
15.365895 17.814137 1.0426744
0.046445183 0.031214546 4.899087
2.0550814 2.3085272 14.882751
4.3175259 4.8974953 20.919207
5.2984776 6.039794 18.987633
4.8507986 5.5450568 13.568743
3.8052375 4.359056 8.5709476
5.107666 5.8571787 9.3810301
0.20557405 0.20836727 4.9012375
0.35120612 0.38283598 4.8022838
3.8801444 4.3690443 22.534681
4.7338352 5.3658967 19.512936
3.9371645 4.4801483 12.396088
4.4401593 5.0649285 11.087582
5.4023557 6.1711564 10.935166
5.9515533 6.8080649 9.8812332
6.2365818 7.1769691 9.4233723
8.7664938 10.098986 10.865453
4.8685551 5.6105609 4.9548893
4.7982707 5.5353985 3.0480428
5.6548486 6.5258551 2.628099
17.521812 20.234886 5.1733193
15.924634 18.390396 2.2769098
5.165884 5.928091 7.0844717
8.2039499 9.4210014 9.1798067
9.132062 10.49048 8.2587051
9.6647635 11.114155 6.8961558
4.4119401 5.0753813 2.4296966
16.594938 19.09704 3.6208823
15.450918 17.786793 1.0440851
0.046553861 0.031052234 4.899087
2.0706041 2.3096788 14.936599
4.3395505 4.8879752 20.943068
5.3777361 6.0871468 19.194746
4.0690212 4.6187773 11.347869
3.8111403 4.3351798 8.5502825
5.1238508 5.8344975 9.3733559
0.20630014 0.20764843 4.9012375
0.35254031 0.38160774 4.8022838
4.7479525 5.3441796 19.494165
3.967207 4.4826798 12.4411
4.4388256 5.0278931 11.040657
5.4736814 6.2087679 11.034917
5.9640813 6.7745256 9.8628578
6.2639446 7.1578383 9.4268761
8.6787271 9.9276638 10.714808
4.8881102 5.5935326 4.9548893
4.8844433 5.5932646 3.9736221
5.5892792 6.4048758 2.588618
17.640768 20.229136 5.1873088
16.047646 18.402258 2.2849574
5.120049 5.8342514 6.9946828
8.2234602 9.3771124 9.1650906
9.1657829 10.455298 8.2561722
10.107161 11.541286 7.1793933
4.4234085 5.0528436 2.4264095
16.71694 19.102348 3.6326239
15.516203 17.736513 1.0442867
0.046661969 0.030889541 4.899087
2.0752418 2.2986584 14.912122
5.4651804 6.1427765 19.429474
4.0739927 4.5920048 11.317145
3.8206539 4.3155293 8.5378847
5.1420622 5.8141751 9.3695183
0.20722857 0.2071304 4.9062285
0.35387027 0.38037482 4.8022838
4.0031085 4.4915557 12.504117
4.4476843 5.0026221 11.019327
5.5193276 6.2166624 11.082797
5.9697003 6.7333732 9.833456
6.30304 7.1519828 9.4479036
8.7570524 9.9469728 10.768161
4.9158931 5.5858531 4.9631138
4.8863854 5.556222 3.9597094
5.6084356 6.3817225 2.587208
17.763136 20.226488 5.2022309
16.121641 18.357351 2.2862985
5.1527457 5.8303318 7.0113101
8.4354124 9.5513344 9.3622828
9.2050762 10.426472 8.2587051
10.018301 11.359569 7.0891771
4.4441419 5.0409145 2.4280529
16.819534 19.084747 3.6402216
15.670491 17.787203 1.0499296
0.046808042 0.03074695 4.9040866
2.0839381 2.2921538 14.917018
5.540041 6.1833186 19.618177
3.8300762 4.2958651 8.525485
5.1665893 5.8009777 9.3771925
0.20795032 0.20640579 4.9062285
0.35483113 0.37874863 4.7973127
3.9113271 4.312345 22.452412
5.6191616 6.2365217 22.882341
4.0187626 4.4775548 12.504117
4.4512024 4.9715223 10.9852
5.5731292 6.2332997 11.146637
6.0563884 6.7833014 9.9363604
6.3516393 7.15661 9.4829493
5.0294919 5.6728806 6.1954293
4.9436808 5.5780468 4.9713378
4.8940024 5.525867 3.9504342
17.8857 20.223234 5.2171526
16.19882 18.315887 2.2880869
5.1730661 5.8123097 7.0113101
8.5036211 9.5610933 9.4005432
9.1869936 10.333066 8.2105751
9.9524069 11.20576 7.0157447
4.4429002 5.0041828 2.4181919
16.93207 19.07777 3.6498909
15.795483 17.803402 1.0537587
0.046915084 0.030583372 4.9040866
2.0891762 2.2818618 14.897437
4.420579 4.8754387 21.086226
5.5629001 6.1653938 19.622782
3.8816795 4.3141975 10.702675
3.8412881 4.2782812 8.5172195
5.1889477 5.7852936 9.3810301
0.20866956 0.20567864 4.9062285
0.35615104 0.37750772 4.7973127
3.9238129 4.2958817 22.437893
5.6896009 6.2705445 23.079439
4.048965 4.4796495 12.549129
4.4580503 4.9443326 10.959604
5.6210647 6.2429185 11.198507
6.0936298 6.777245 9.9584122
6.3742056 7.1317368 9.4794445
5.0285244 5.6320624 6.1703215
4.9575539 5.5545173 4.9658556
4.9515929 5.5517268 3.9805787
18.008457 20.21937 5.2320747
16.315649 18.318733 2.2952402
5.1958156 5.7969975 7.0146356
8.5666084 9.5644722 9.4329185
9.0245953 10.079334 8.0357857
4.3546548 4.8687377 3.1070733
4.4571934 4.9851236 2.4165485
4.214201 4.7149997 1.6159381
17.044762 19.070242 3.6595604
15.900803 17.796587 1.0563786
0.047021549 0.030419422 4.9040866
2.093677 2.2708125 14.87296
5.585701 6.1473832 19.627382
3.8693771 4.2704501 10.62806
3.8505371 4.2585855 8.5048208
5.2220016 5.7814174 9.4040556
0.20938624 0.20494901 4.9062285
0.35746664 0.37626222 4.7973127
3.9098513 4.2507052 22.273352
4.4053683 4.821301 17.814156
4.0455275 4.4445605 12.490613
4.4595027 4.9113636 10.92121
5.5901966 6.1652212 11.094767
6.1104226 6.748394 9.9473858
5.0741782 5.6434193 6.2017064
8.8035555 9.7945623 8.7189226
4.956141 5.5179305 3.9689846
4.9715772 5.5370517 3.0948689
18.128126 20.211237 5.2460637
16.402771 18.287619 2.2983696
5.236033 5.8009987 7.0412397
8.5430908 9.4714804 9.3711119
9.0221968 10.006151 8.0028543
4.3108745 4.7860627 3.0651124
4.4872065 4.9835725 2.4231224
4.2631512 4.7363877 1.6276612
17.154295 19.058479 3.6685393
16.012953 17.796684 1.0594016
0.047127452 0.030255102 4.9040866
2.1029768 2.2649827 14.882751
4.4454145 4.8345695 21.043278
3.8519733 4.2215343 10.540278
3.8615894 4.2409568 8.4965553
5.252934 5.7750092 9.4232426
0.21010037 0.20421684 4.9062285
0.35840902 0.37462726 4.7923412
3.8811011 4.1900029 22.026541
4.3976326 4.7792277 17.715607
4.0683722 4.4384356 12.51312
4.4607801 4.8784451 10.882817
5.5852695 6.1167436 11.042896
6.0699835 6.6568813 9.8444815
7.1279874 7.8639035 10.509781
5.1643848 5.7035751 6.2864447
8.8461094 9.7730732 8.7271471
4.9783435 5.5038819 3.9713032
4.975328 5.5024705 3.0855033
18.251247 20.20616 5.2609854
16.553297 18.326336 2.3099937
5.2964334 5.8268929 7.0944476
8.4755449 9.3308992 9.2622147
5.0695829 5.5831766 4.5172
4.321456 4.7642622 3.0609162
4.4728551 4.9328961 2.4066873
4.2894511 4.7322817 1.6311781
17.273928 19.057188 3.6795902
16.098459 17.766594 1.0608122
0.047193959 0.030070473 4.899087
2.1108701 2.257628 14.882751
4.4642916 4.8212132 21.052822
3.835896 4.1745558 10.456885
3.8725657 4.2233033 8.4882889
0.21081193 0.20348221 4.9062285
0.35971457 0.3733739 4.7923412
3.9265702 4.2095189 22.200762
5.7162457 6.1688504 22.924578
4.0912237 4.4322052 12.535625
4.4583488 4.8417406 10.835893
5.5984282 6.0883374 11.026937
6.0221009 6.5582428 9.7305517
7.1529894 7.8363395 10.506277
5.1842628 5.685513 6.2864447
5.0154476 5.5022984 4.9658556
4.9975257 5.4864707 3.9713032
4.9945049 5.4850698 3.0855033
18.374556 20.20047 5.2759075
16.69759 18.356859 2.3207238
5.5108624 6.0204391 7.3505111
8.4125795 9.1968718 9.1592045
5.0657692 5.5399961 4.4969349
4.3533645 4.7659035 3.0714064
4.4454684 4.868433 2.3836782
17.377069 19.037006 3.6871877
16.19742 17.750887 1.0630292
0.047298636 0.029905552 4.899087
2.122926 2.2546937 14.912122
4.4810934 4.8056006 21.052822
3.8000188 4.1066475 10.320825
3.883466 4.2056251 8.4800224
0.21152093 0.20274511 4.9062285
0.36101568 0.372116 4.7923412
3.9739437 4.2306004 22.384659
5.6930056 6.1009159 22.746254
4.4681292 4.8184996 10.818829
12.558046 13.561551 24.549128
6.0058284 6.4948678 9.6680737
7.1634059 7.7929449 10.481745
5.1882815 5.6501803 6.2676144
8.8575687 9.6494694 8.6723175
5.0196409 5.4722571 3.9736221
5.0230203 5.4778528 3.0911226
18.498043 20.194164 5.2908292
16.798567 18.338856 2.3256416
5.5495586 6.0203829 7.3737898
8.5432196 9.2744751 9.2651587
4.3853374 4.7673798 3.0818968
4.4624352 4.8528857 2.3836782
6.1118255 6.6489062 2.2689188
17.503736 19.041857 3.6996198
16.282946 17.71999 1.0644399
0.04740274 0.029740267 4.899087
2.1272805 2.2435753 14.887647
4.4804702 4.7714314 20.971699
3.7996359 4.0775886 10.281322
3.8962066 4.1899834 8.4758902
5.5356302 5.9592175 9.8146687
0.21222736 0.20200552 4.9062285
0.36193955 0.37047252 4.7873693
3.9895504 4.2176161 22.389498
4.3859882 4.667522 17.471582
4.461782 4.7780933 10.763371
12.615585 13.528652 24.569078
6.0700493 6.5185223 9.7342262
7.1639156 7.7391038 10.443194
5.4722333 5.9178109 6.58146
8.8457842 9.5693636 8.6284542
5.038712 5.4547019 3.9736221
5.0232406 5.4398503 3.0798843
6.1303587 6.6410999 2.7465417
18.625044 20.190853 5.306684
16.909752 18.331352 2.3319006
5.5883217 6.0201302 7.397068
8.8421831 9.5320425 9.5506449
9.0056734 9.7116785 7.8685956
4.371109 4.7187476 3.0609162
6.1118841 6.6025624 2.2607126
17.583555 18.995176 3.7023826
16.378632 17.699711 1.0664551
0.047506265 0.029574618 4.899087
2.3376222 2.4482129 16.297472
3.5812199 3.7872484 16.710318
3.8941507 4.1498761 10.496387
3.9069622 4.1722493 8.4676247
5.5607772 5.9445395 9.8223438
0.2129312 0.20126347 4.9062285
0.36323053 0.36920688 4.7873693
3.9817066 4.1800013 22.263672
4.2824554 4.525589 16.997614
4.4480605 4.7301917 10.69085
12.681296 13.504303 24.60499
6.0649381 6.467618 9.6901245
7.171433 7.693181 10.415158
5.500814 5.907218 6.5908747
8.7594728 9.4098825 8.5133123
5.0577221 5.4370804 3.9736221
5.0453558 5.4256783 3.0817575
18.752243 20.186899 5.3225384
17.021086 18.323294 2.3381598
5.5557566 5.9433069 7.3272328
8.8726435 9.4981651 9.5477009
9.0718822 9.7148399 7.896461
4.3535004 4.6669555 3.0378375
5.4430361 5.8369656 2.8668697
6.0785508 6.5207453 2.2407832
17.656507 18.940928 3.703764
16.532278 17.741117 1.0718964
0.047609206 0.029408611 4.899087
2.3496826 2.4437075 16.321947
3.5830948 3.7628334 16.657825
3.939867 4.1693316 10.57978
3.9215024 4.158586 8.4676247
5.4386363 5.7734427 9.5729055
0.21363243 0.200519 4.9062285
0.36451709 0.3679367 4.7873693
3.9997542 4.1697054 22.283031
4.239892 4.4493985 16.767668
4.387434 4.6332078 10.507416
12.740779 13.473089 24.628929
6.0362701 6.3921824 9.609271
7.1982427 7.6681013 10.415158
5.4228892 5.7829294 6.4747524
8.9095154 9.5043249 8.6257124
5.0766702 5.4193931 3.9736221
4.9216695 5.2557592 2.9974711
10.110554 10.800616 4.438581
18.882999 20.18589 5.3393254
17.132572 18.314682 2.3444188
5.435709 5.7743502 7.14433
8.346302 8.8724308 8.9531832
9.0850668 9.6611319 7.8787289
4.3759789 4.6583457 3.0420337
5.4633775 5.8179307 2.8668697
6.1112556 6.5101199 2.2443004
17.841141 19.005548 3.7279379
16.645384 17.737947 1.0749195
0.04775073 0.029261503 4.9040866
2.361032 2.4384165 16.341528
3.7326679 3.9116349 12.797236
3.9874177 4.1902528 10.667562
3.9340563 4.1428313 8.4634914
5.4609623 5.7567487 9.5767431
0.21433108 0.19977205 4.9062285
0.36579922 0.36666206 4.7873693
4.2888532 4.4694338 16.899065
4.3621836 4.5744543 10.409299
12.77942 13.419805 24.612968
8.1632681 8.6355019 11.7574
5.3762326 5.6932168 6.3962908
8.9742117 9.5066147 8.6558685
5.110755 5.4177499 3.9852159
4.9049988 5.2014465 2.9768674
10.092255 10.705917 4.4146104
19.013977 20.184214 5.356113
17.244204 18.305515 2.350678
5.3710637 5.6659203 7.0345883
8.3132868 8.7757521 8.8854904
9.0890932 9.5980597 7.8533969
5.1064496 5.3980632 3.5224879
4.5719366 4.8347111 2.4050438
6.1205869 6.4746189 2.2396109
18.383636 19.446964 3.8246329
16.775827 17.752357 1.07895
0.04785258 0.029094644 4.9040866
2.3801925 2.4410949 16.414957
3.747653 3.8999901 12.801839
3.9937344 4.1676626 10.645616
3.9484935 4.1290741 8.4634914
5.492094 5.7492399 9.5959311
0.21502711 0.19902268 4.9062285
0.36707687 0.36538297 4.7873693
4.351028 4.5309825 10.345309
12.855385 13.405564 24.668829
7.8322878 8.1789293 12.354619
8.1933622 8.6069546 11.7574
5.3799796 5.6574922 6.3774605
9.0044603 9.4721994 8.6531267
5.0899725 5.3581257 3.9550719
4.571969 4.8145103 2.770834
6.3050528 6.6418376 2.7817924
19.14517 20.18187 5.3729
17.35598 18.295792 2.3569372
5.4011216 5.6579399 7.0478907
8.4415188 8.8490429 8.9885006
4.8831801 5.1207232 4.2436171
5.1252613 5.3802052 3.5224879
4.5952983 4.825562 2.4083309
6.1431503 6.4532146 2.2396109
18.444578 19.3755 3.8232515
16.896242 17.755215 1.0823761
0.047953848 0.028927429 4.9040866
3.3413231 3.4361691 15.36939
3.7558095 3.8812692 12.783429
3.9628828 4.1152658 8.4634914
0.21572053 0.19827089 4.9062285
0.36835006 0.36409938 4.7873693
2.6674867 2.7232511 14.714171
4.616015 4.7436199 18.053488
4.3486881 4.4970193 10.30265
7.9055023 8.1979055 12.424447
8.2060804 8.5602818 11.732868
5.3673902 5.6049438 6.3397985
9.0634928 9.4678955 8.6778002
4.9830971 5.209085 3.8600011
4.4573812 4.6611519 2.6940396
6.31494 6.6059184 2.7761524
19.276579 20.178852 5.3896871
17.471338 18.289112 2.3636432
5.4104881 5.6282854 7.0345883
8.4947586 8.8428421 9.0120459
4.9010248 5.1036468 4.2436171
5.1063075 5.3229795 3.4973111
4.5794301 4.7754092 2.3918958
18.611479 19.414669 3.8432813
17.003052 17.743019 1.084996
0.048054531 0.028759863 4.9040866
3.354342 3.4255514 15.374163
3.7761519 3.8751307 12.806441
3.9733057 4.0973673 8.455225
6.7274652 6.9447131 11.652833
0.21641131 0.19751668 4.9062285
0.36999953 0.36318451 4.7923412
2.6734455 2.7103438 14.694814
4.5999341 4.6942 17.926783
4.3607197 4.4780755 10.294119
8.1148643 8.3447895 15.487783
7.919899 8.1556673 12.402395
8.2359123 8.5315847 11.732868
5.4031334 5.6029844 6.3586292
5.335444 5.5347171 5.1248603
4.7215791 4.9013424 3.6489904
4.6858621 4.8659577 2.8176599
6.2680945 6.5112591 2.7465417
19.411604 20.178703 5.4074068
17.583406 18.278259 2.3699024
5.4249082 5.6039996 7.0279379
7.022037 7.2588949 7.4374552
4.981741 5.1515837 4.296814
5.1248574 5.3051229 3.4973111
4.6616774 4.8273315 2.4247658
4.2773137 4.4308515 1.5760792
18.55876 19.224888 3.8191075
17.113453 17.733891 1.0878174
0.048194047 0.028610656 4.9090867
2.4120908 2.4225297 16.459015
3.3537016 3.4010675 15.316898
3.7800772 3.8521652 12.774224
4.1510649 4.2420111 10.944074
3.9974139 4.0935392 8.4758902
6.7069025 6.8753014 11.576083
0.21709944 0.19676004 4.9062285
0.37126499 0.36189076 4.7923412
2.6935203 2.7116961 14.752887
4.6126552 4.6744294 17.912703
4.3854547 4.4721365 10.315448
8.1355114 8.3078012 15.471824
7.9696522 8.1497869 12.435472
8.2581854 8.4951134 11.722355
8.963356 9.2333755 8.5215368
5.0162573 5.17099 3.8576822
4.8093214 4.9593964 2.8794699
6.2240057 6.4204535 2.7183409
19.543444 20.17433 5.4241939
17.699078 18.270422 2.3766086
5.4366174 5.5770082 7.0179615
7.0332308 7.2198629 7.4227395
4.9996929 5.1341629 4.296814
4.9756174 5.1147838 3.3861144
4.6784992 4.8110299 2.4247658
4.279202 4.4019527 1.5713899
18.605043 19.138683 3.8149636
17.227478 17.727791 1.0908405
0.048293624 0.028442252 4.9090867
2.421253 2.414814 16.463909
3.3655531 3.3893402 15.316898
3.7852616 3.8306093 12.74661
4.238132 4.3008485 11.132804
4.009706 4.0775547 8.4717579
7.5731792 7.7092962 13.015146
0.21778494 0.19600104 4.9062285
0.37252599 0.3605926 4.7923412
2.709192 2.7084982 14.786762
4.6471901 4.6766615 17.983095
4.4047036 4.4605126 10.32398
8.1559982 8.2707701 15.455864
5.6930695 5.7812581 8.874238
5.4762573 5.6019859 5.2208114
5.0342765 5.1534481 3.8576822
5.1602159 5.2842054 3.0723922
6.2497311 6.4021215 2.7197509
19.678921 20.172796 5.4419141
17.814907 18.262001 2.3833146
5.448204 5.5500031 7.0079846
7.0838652 7.2212377 7.4492283
4.9240174 5.0212655 4.2182851
4.8632245 4.9644585 3.3000941
4.5300684 4.6259766 2.3425903
4.2945414 4.3869882 1.5713899
18.585131 18.985153 3.7976964
17.331184 17.710394 1.0932587
0.048392612 0.028273504 4.9090867
2.4238799 2.4006159 16.424747
3.3826406 3.3828487 15.340758
3.8013659 3.8201425 12.755815
4.1923871 4.2248282 10.974797
4.0258946 4.0655327 8.4758902
7.6045518 7.6873717 13.022821
0.21868372 0.19543126 4.9112206
0.37416703 0.35965911 4.7973127
3.1164901 3.0939791 16.945147
4.7013268 4.698225 18.128571
4.4257641 4.4506583 10.336779
8.157217 8.2144537 15.403993
5.7060537 5.7541285 8.8632126
8.5701551 8.6937628 12.076313
8.0155725 8.1425266 7.5757308
5.1485381 5.2337399 3.929565
5.1851311 5.2727718 3.0761385
6.2316856 6.3392162 2.7028308
19.814623 20.170561 5.4596338
17.934385 18.256546 2.3904681
5.4596701 5.5229855 6.9980083
9.4274406 9.5467024 7.9699235
9.326808 9.4546824 6.2268772
4.5826612 4.647121 2.3606691
6.1865926 6.2757893 2.2161646
18.567852 18.835524 3.7811201
17.466539 17.724516 1.0974909
0.048491009 0.02810441 4.9090867
2.4257109 2.385715 16.380692
3.8091457 3.8013299 12.737404
4.1884871 4.1915331 10.926517
0.21936455 0.19466673 4.9112206
0.37580603 0.35871854 4.8022838
3.130852 3.0866117 16.964504
3.4388912 3.4127617 13.229323
4.4431181 4.4370251 10.341043
8.1645336 8.1646233 15.364093
5.7261047 5.7341757 8.8632126
8.6029625 8.6663256 12.079819
8.0410032 8.1115284 7.5729895
5.1137772 5.1622357 3.8901453
5.1839323 5.2348757 3.0649002
6.2537761 6.3174248 2.7028308
19.950548 20.167625 5.4773536
18.050535 18.246937 2.3971741
5.46311 5.4880171 6.978055
7.7954531 7.8364267 8.132041
9.3725567 9.4250917 7.896461
9.3181725 9.3802099 6.1996026
4.7485876 4.7818785 2.4346271
6.2906466 6.3369451 2.2443004
18.692797 18.830341 3.7928617
17.598686 17.734364 1.1015215
0.048588816 0.027934972 4.9090867
2.4340236 2.3772333 16.380692
3.9142151 3.8601472 17.621767
3.8251672 3.7907608 12.74661
4.20649 4.180263 10.935295
0.22004274 0.19389983 4.9112206
0.37705588 0.35740453 4.8022838
3.1380141 3.0721467 16.945147
3.4618454 3.411638 13.271558
3.6829441 3.6434395 10.775651
4.4604306 4.4233251 10.345309
8.199398 8.1424437 15.376063
5.7677207 5.7356677 8.8962889
10.24678 10.250426 14.322727
7.4721022 7.482595 8.6089029
8.0840397 8.0982075 7.5866971
5.0942235 5.1067204 3.8623199
4.8551822 4.8687859 2.8663585
5.1378574 5.1540437 2.2290597
20.09016 20.167467 5.496006
18.163322 18.233212 2.4034333
5.4875207 5.4741879 6.9847064
7.811317 7.7977443 8.1202688
4.88482 4.8780456 4.1422896
4.9855599 4.9838505 3.3462515
4.835371 4.8353944 2.4691405
6.4089465 6.4112 2.2771251
18.989481 18.996126 3.8384466
17.731112 17.743502 1.1055522
0.048646294 0.027747178 4.9040866
2.442307 2.3687224 16.380692
3.803952 3.7253108 17.068216
0.22071823 0.19313055 4.9112206
0.37868968 0.35645127 4.8072553
3.1424098 3.0550413 16.91127
3.516901 3.441777 13.435805
3.7034047 3.6381893 10.798157
4.4777026 4.4095583 10.349575
8.2213345 8.1074257 15.364093
5.7780581 5.7059717 8.881588
10.231897 10.164328 14.252636
7.5036955 7.461956 8.61518
8.1241159 8.0817347 7.5976624
5.1025996 5.0795312 3.8553634
4.6126366 4.5933819 2.718389
5.098042 5.0785236 2.2050891
20.226536 20.163107 5.5137253
18.279762 18.222437 2.4101396
5.5304689 5.4786487 7.0146356
7.8384886 7.770431 8.1202688
4.9752798 4.933814 4.2030859
5.0512409 5.0143785 3.377722
4.8723245 4.8384504 2.4790015
6.4416318 6.399066 2.280642
19.220797 19.093754 3.8709087
17.856728 17.74489 1.1091797
0.048742849 0.027577201 4.9040866
2.4505606 2.3601828 16.380692
3.114923 3.0293353 13.937796
3.9139838 3.8356533 10.110148
0.22139104 0.1923589 4.9112206
0.3799316 0.35512722 4.8072553
3.1494372 3.0405612 16.891912
3.7071037 3.6026607 14.111563
3.7191982 3.6282804 10.807159
4.4930673 4.3939013 10.349575
6.1957293 6.0673938 11.55761
5.8003612 5.6881413 8.8852634
10.236849 10.098496 14.210582
7.5296969 7.4357181 8.61518
5.0793457 5.021204 3.8252192
4.4110832 4.3621111 2.5947688
4.4473119 4.3994651 1.9287226
20.366615 20.161497 5.5323782
18.392807 18.207565 2.4163985
5.5362511 5.4462185 6.9980083
7.7791505 7.6579547 8.0319738
5.0446877 4.9678369 4.24615
5.0978026 5.0253916 3.3966045
4.9900532 4.9208841 2.528307
6.1628833 6.079567 2.1786504
19.333157 19.071756 3.8798873
17.989679 17.75263 1.1132103
0.048838817 0.02740689 4.9040866
1.5803324 1.4974645 13.840225
2.4543688 2.3473921 16.351318
3.1190357 3.0122221 13.909163
3.8981698 3.7935722 10.035534
12.451041 12.142076 25.615229
0.22206116 0.19158494 4.9112206
0.38077787 0.35343647 4.8022838
3.1573095 3.0269399 16.877394
3.7444923 3.6136653 14.205419
3.7271495 3.6107314 10.793655
4.5102482 4.3800077 10.353842
6.1952677 6.0247221 11.51771
5.8153234 5.6631289 8.8779135
10.335726 10.125093 14.298196
7.5305953 7.3848619 8.5869331
12.535401 12.297066 11.597462
5.0620689 4.9693074 3.7997122
4.3965139 4.3174529 2.5779114
4.4523759 4.3738294 1.9244925
20.506929 20.159157 5.5510306
18.509521 18.19562 2.4231048
5.5552278 5.4268603 6.9980083
6.935833 6.7802706 7.1460824
5.0866542 4.974309 4.2664156
5.0072002 4.9034352 2.528307
6.1875401 6.0614185 2.1798227
19.417301 19.021482 3.8833408
18.108629 17.745674 1.1164348
0.048934188 0.027236242 4.9040866
1.5861158 1.4924715 13.845164
2.4625478 2.3388102 16.351318
3.1241446 2.9961505 13.885303
3.9113879 3.7799418 10.035534
12.487284 12.092667 25.602829
0.22250867 0.19062157 4.9062285
0.3820093 0.35210517 4.8022838
3.1651249 3.0133002 16.862875
3.7782648 3.6208699 14.285195
3.7381623 3.5961905 10.789155
4.5273876 4.3660479 10.358108
6.2292657 6.0156193 11.541649
5.8350563 5.6427956 8.8779135
8.6915503 8.4551821 11.995708
7.5674815 7.3693924 8.5994873
12.60221 12.276576 11.619394
5.0508361 4.9237776 3.7788429
4.4148769 4.3053164 2.5797846
4.4676161 4.3582611 1.9244925
20.65099 20.15951 5.5706153
18.626377 18.183079 2.429811
5.6009369 5.4334335 7.0312629
6.9536581 6.7503886 7.1401958
5.0668769 4.920485 4.2360177
4.9633493 4.8266692 2.4987237
6.2922773 6.1211252 2.2079582
19.39839 18.870714 3.8667645
18.270714 17.779915 1.1220777
0.048988976 0.027047804 4.899087
1.5913157 1.4869258 13.845164
2.4706967 2.3302002 16.351318
3.1021545 2.9543452 13.742144
3.8992112 3.7315292 12.774224
3.9522073 3.792798 10.10576
12.574042 12.091916 25.693754
7.0811915 6.8168435 11.844708
0.22317269 0.1898437 4.9062285
0.38323605 0.35076955 4.8022838
3.1664898 2.9935987 16.814482
3.7081909 3.5425189 10.667622
4.5426002 4.3502173 10.358108
4.2384925 4.0646544 7.8508768
5.852272 5.6200447 8.874238
10.516452 10.159234 14.448892
7.5959578 7.3456383 8.6026258
12.644987 12.232511 11.619394
5.0711751 4.9091978 3.7811618
4.4332089 4.2931046 2.5816576
5.1305518 4.9701338 2.1895788
20.791775 20.155684 5.5892677
18.750521 18.176876 2.4374113
8.0372944 7.7426305 10.020887
6.9771795 6.7260747 7.1401958
7.7557216 7.4791975 6.4170842
4.8432107 4.6754303 3.1993876
4.9665794 4.7961926 2.4921496
4.9572163 4.7888155 1.7530992
19.417843 18.758158 3.8577855
18.325483 17.709087 1.1216747
0.049123138 0.026893957 4.9040866
1.5999142 1.4845324 13.8748
3.5625417 3.3691306 15.722517
3.9249589 3.7300079 12.815647
12.612104 12.044064 25.685488
7.0794578 6.7677212 11.802496
0.22383402 0.18906353 4.9062285
0.38445812 0.3494297 4.8022838
3.1604242 2.967042 16.727371
4.5359287 4.2865906 17.02577
3.7726533 3.5789952 10.816162
4.5615377 4.3379292 10.366639
4.2526546 4.0498347 7.8508768
5.8694005 5.5972424 8.8705626
10.541555 10.112587 14.434873
7.6187444 7.3163819 8.5994873
4.4748998 4.3033109 2.5966418
5.2619543 5.0619426 2.2361097
20.932783 20.151121 5.6079202
18.87126 18.166573 2.4445646
7.9698415 7.6241922 9.9044952
7.0006151 6.7016788 7.1401958
7.8066897 7.4759316 6.4373498
4.6989641 4.5046 3.0965831
5.0721154 4.8656983 1.7859241
19.690472 18.889095 3.897845
18.563814 17.814508 1.1315496
0.049216717 0.026722319 4.9040866
1.6073724 1.4810444 13.894556
2.0768025 1.9315377 13.658944
3.5557818 3.3393033 15.641393
3.92943 3.7082398 12.788033
4.13515 3.91327 10.500776
12.68674 12.030948 25.751616
7.0286508 6.6723523 11.679695
0.22471444 0.1884658 4.9112206
0.38607153 0.34844241 4.8072553
3.2112169 2.9937041 16.940306
4.4791365 4.2034216 16.758282
3.8358297 3.6135709 10.9602
4.569067 4.3148174 10.349575
4.2470613 4.0163321 7.8149672
5.8889027 5.5767198 8.8705626
8.8312578 8.412899 12.0658
7.6301527 7.2763124 8.5837946
5.3749485 5.12749 4.9548893
4.5100102 4.3068743 2.6078801
5.210218 4.977272 2.2079091
21.07756 20.14921 5.6275053
18.999352 18.162533 2.4526119
7.958508 7.5603237 9.8579378
7.0356832 6.6883407 7.151969
7.7765088 7.3951645 6.3917522
4.6752124 4.4506187 3.0714064
4.993103 4.7548904 2.4888628
19.788557 18.85099 3.9040613
18.810339 17.925377 1.1418277
0.049269527 0.026533317 4.899087
1.6148256 1.4775224 13.914314
2.079792 1.9208229 13.634468
3.5794253 3.3380692 15.693885
3.9309459 3.6838138 12.751212
4.1487846 3.8988121 10.500776
12.722512 11.980802 25.739218
7.0029211 6.6016064 11.599108
0.22537094 0.18768026 4.9112206
0.3872855 0.34709266 4.8072553
2.7447541 2.5410228 14.438324
4.5329194 4.2242317 16.903759
3.8627279 3.6135437 11.000711
4.580296 4.2952738 10.341043
4.2390895 3.9808557 7.7750669
5.9083333 5.5561304 8.8705626
10.883923 10.296079 14.80285
7.6526794 7.2469573 8.5806561
5.3321023 5.0511832 4.9000597
4.5317445 4.2974854 2.6116261
5.2275605 4.9590549 2.2079091
21.215458 20.139772 5.645225
19.124035 18.154388 2.4602122
7.9604053 7.5094385 9.8280087
9.4132462 8.889266 7.6938066
4.7500858 4.4903922 3.1091714
6.7629151 6.3953938 3.328696
4.6398654 4.3892517 1.6311781
19.980148 18.900908 3.9282351
18.782078 17.773758 1.1367894
0.049361844 0.026361173 4.899087
1.6153722 1.467697 13.8748
2.2771015 2.0883424 14.877855
3.0018153 2.7799118 13.126558
3.9495013 3.6753931 12.769622
4.1588669 3.8810384 10.491998
8.9797907 8.4061594 14.803424
0.22624782 0.18707563 4.9162121
0.38849473 0.34573865 4.8072553
2.7711897 2.5475886 14.530273
4.574235 4.232996 17.002306
3.886483 3.6104095 11.03222
4.5819011 4.266818 10.311182
4.2463479 3.9598687 7.7630963
5.9301701 5.5377865 8.874238
10.930193 10.267792 14.816869
5.3679752 5.0497308 4.9165092
5.0618124 4.7650423 3.7255106
4.5872178 4.3197789 2.6341026
5.070251 4.7763114 2.1374075
21.37499 20.149832 5.668541
19.248892 18.145594 2.4678128
7.9429712 7.440764 9.7748003
5.2155461 4.8892131 5.2889481
9.063735 8.4995537 7.3872919
4.8484559 4.5514402 3.1616228
5.008965 4.703753 2.4806452
4.655158 4.3730292 1.6311781
20.121799 18.902252 3.9427392
18.785753 17.653349 1.1335649
0.04945356 0.026188707 4.899087
2.0861001 1.8820271 17.860781
2.2866359 2.0824378 14.892542
3.0071054 2.7653749 13.10747
3.9623067 3.6615844 12.769622
4.1741452 3.868125 10.496387
4.0255828 3.738277 8.1411209
9.0184698 8.3834915 14.818774
0.22689945 0.18628474 4.9162121
0.38969919 0.34438044 4.8072553
2.7104385 2.474344 14.167316
4.4365029 4.0768881 16.439175
3.8526583 3.5540164 10.901685
4.6044264 4.2578812 10.328246
4.2535114 3.93888 7.7511263
