# .PCD v0.7 - Point Cloud Data file format
VERSION 0.7
FIELDS x y z
SIZE 4 4 4
TYPE F F F
COUNT 1 1 1
WIDTH 1402
HEIGHT 1
VIEWPOINT 0 0 0 1 0 0 0
POINTS 1402
DATA ascii
-0.89591718 -0.32735199 0.58585554
-0.8802985 -0.32181436 0.46700355
-0.87431896 -0.31979603 0.36358625
-0.86719221 -0.3175272 0.26680472
-0.86960477 -0.3184078 0.17608546
-0.92296386 -0.33469877 0.95557451
-0.90290529 -0.32777423 0.78296953
-0.89308822 -0.32438177 0.64396977
-0.87964785 -0.32001373 0.52017462
-0.87468946 -0.31837741 0.41311076
-0.86790419 -0.31607386 0.31349337
-0.88397241 -0.32192266 0.22342718
-0.86815578 -0.31632888 0.13094862
-0.084480137 -0.0042834743 8.188962
-1.2087508 -0.41297954 8.1205645
-1.2212024 -0.42359078 6.2377801
-0.79948246 -0.28169763 2.7570369
-1.0559311 -0.37486932 2.6992986
-1.0042033 -0.35806584 2.0210757
-0.9650721 -0.34523687 1.5779986
-0.94623977 -0.33904937 1.2800589
-0.45982826 -0.13281167 8.1158657
-0.83511871 -0.2753481 8.1580486
-0.6833899 -0.23803568 2.8237054
-0.93035668 -0.32739893 2.7362974
-1.042007 -0.36889035 2.3493781
-0.98457575 -0.34989652 1.7793139
-0.95061332 -0.33856374 1.410978
-0.9334197 -0.33316219 1.1527174
-0.9298141 -0.33498624 1.0510111
-0.9108569 -0.32868549 0.8631919
-0.89090115 -0.32165554 0.70561695
-0.89705443 -0.32422268 0.58585554
-0.8814165 -0.31873956 0.46700355
-0.87091893 -0.31511009 0.36217624
-0.86829537 -0.31449822 0.26680472
-0.87071097 -0.31537038 0.17608546
-0.92061198 -0.3302145 0.95224905
-0.90404397 -0.32462052 0.78296953
-0.89015812 -0.31980494 0.64143664
-0.87648904 -0.31540459 0.5180766
-0.87579548 -0.31532219 0.41311076
-0.86442924 -0.31139511 0.31232107
-0.88043171 -0.31715676 0.22273649
-0.86455464 -0.31160256 0.13074709
-0.084494576 -0.0039885575 8.188962
-1.2109213 -0.40900618 8.1255035
-1.219784 -0.41833496 6.2230945
-0.80046093 -0.27890521 2.7570369
-1.0553899 -0.37053415 2.6946962
-1.0031884 -0.35376206 2.0166867
-0.96361828 -0.3409276 1.5738657
-0.94741756 -0.33574432 1.2800589
-0.46028906 -0.13120577 8.1158657
-0.83607477 -0.27243131 8.1580486
-0.68183953 -0.23483071 2.8140266
-0.93149388 -0.3241494 2.7362974
-1.0412337 -0.36453167 2.344877
-0.98333061 -0.34559301 1.775048
-0.94894713 -0.33424252 1.406988
-0.93138015 -0.32877365 1.1490422
-0.93097782 -0.33173856 1.0510111
-0.91199869 -0.325504 0.8631919
-0.89201856 -0.31854373 0.70561695
-0.89400935 -0.31959832 0.58353674
-0.87815863 -0.31409967 0.46513051
-0.87201357 -0.31206807 0.36217624
-0.86476344 -0.30980867 0.26587209
-0.8671183 -0.31064957 0.17563838
-0.91824007 -0.32575074 0.94892353
-0.90136254 -0.32011023 0.78002638
-0.89126903 -0.31669575 0.64143664
-0.87330896 -0.3108215 0.51597857
-0.87244225 -0.31067917 0.41146725
-0.865511 -0.30837581 0.31232107
-0.87686861 -0.31241956 0.22204581
-0.86093122 -0.30690527 0.13054556
-0.084507987 -0.0036935925 8.188962
-1.2130787 -0.40502271 8.1304436
-1.2193081 -0.41342103 6.213304
-0.80142963 -0.27610937 2.7570369
-1.0548311 -0.3662073 2.6900938
-1.0044171 -0.35025814 2.0166867
-0.9648025 -0.33756191 1.5738657
-0.94555879 -0.33137527 1.2762213
-0.46074423 -0.12959825 8.1158657
-0.83702064 -0.26951122 8.1580486
-0.68146503 -0.23204432 2.8091869
-0.93261969 -0.32089588 2.7362974
-1.0383854 -0.35947093 2.3358746
-0.98206741 -0.34130248 1.7707821
-0.95010811 -0.33092806 1.406988
-0.93252206 -0.32552049 1.1490422
-0.92876655 -0.32730168 1.0475066
-0.90945899 -0.32102314 0.86005342
-0.89312506 -0.31542808 0.70561695
-0.89511955 -0.31647569 0.58353674
-0.87924963 -0.31103241 0.46513051
-0.86857545 -0.3074218 0.3607662
-0.86120939 -0.30514765 0.26493949
-0.86819738 -0.30762088 0.17563838
-0.91937155 -0.3225435 0.94892353
-0.90247446 -0.31696197 0.78002638
-0.88830209 -0.3121537 0.63890344
-0.87438858 -0.30777118 0.51597857
-0.87352145 -0.30763188 0.41146725
-0.8665821 -0.30535272 0.31232107
-0.87328315 -0.30771112 0.22135513
-0.86199725 -0.30389819 0.13054556
-0.084520362 -0.0033985816 8.188962
-1.2152228 -0.40102908 8.1353817
-1.2178473 -0.40819201 6.1986179
-0.80097544 -0.27282912 2.752265
-1.054255 -0.36188889 2.6854911
-1.0033693 -0.34596938 2.0122976
-0.96331561 -0.33327219 1.5697327
-0.94670975 -0.32807264 1.2762213
-0.46091548 -0.12791255 8.1108732
-0.83795631 -0.26658782 8.1580486
-0.67988813 -0.22886273 2.7995081
-0.93373412 -0.31763849 2.7362974
-1.0375741 -0.35513929 2.3313732
-0.98325276 -0.33787236 1.7707821
-0.94840837 -0.32662851 1.402998
-0.9336527 -0.32226342 1.1490422
-0.92653573 -0.32288426 1.0440021
-0.91057402 -0.31784657 0.86005342
-0.89027297 -0.31092998 0.70287549
-0.89621878 -0.31334919 0.58353674
-0.87595409 -0.30643067 0.46325746
-0.86964327 -0.30438802 0.3607662
-0.86226934 -0.30213961 0.26493949
-0.86926585 -0.30458844 0.17563838
-0.91696429 -0.31810874 0.94559801
-0.89975709 -0.31248385 0.77708322
-0.88938624 -0.30905101 0.63890344
-0.87545758 -0.30471712 0.51597857
-0.87013042 -0.30302787 0.40982375
-0.86305267 -0.30072659 0.31114873
-0.86967564 -0.30303153 0.22066444
-0.85833538 -0.29924276 0.13034403
-0.08453171 -0.0031035305 8.188962
-1.2166153 -0.39678469 8.1353817
-1.2173316 -0.40329838 6.188828
-0.8005082 -0.26955542 2.747493
-1.0518117 -0.35695133 2.676286
-1.004571 -0.34246489 2.0122976
-0.96181041 -0.32899696 1.5655998
-0.94481689 -0.32372722 1.2723838
-0.46135917 -0.12630287 8.1108732
-0.83888173 -0.26366118 8.1580486
-0.67949015 -0.22609156 2.7946689
-0.93483722 -0.31437722 2.7362974
-1.0367453 -0.35081774 2.3268721
-0.98195672 -0.33359933 1.7665161
-0.94954276 -0.32331595 1.402998
-0.9347719 -0.31900239 1.1490422
-0.92765713 -0.31964809 1.0440021
-0.9079985 -0.3133963 0.85691494
-0.89135289 -0.30782047 0.70287549
-0.89312041 -0.30877158 0.58121794
-0.87701839 -0.30337113 0.46325746
-0.86616725 -0.29978168 0.35935616
-0.85867715 -0.29751971 0.26400685
-0.87032378 -0.30155227 0.17563838
-0.91806906 -0.314906 0.94559801
-0.90084237 -0.30934122 0.77708322
-0.8904596 -0.30594462 0.63890344
-0.87651592 -0.30165935 0.51597857
-0.87118292 -0.29998869 0.40982375
-0.86409712 -0.29771215 0.31114873
-0.87072808 -0.29999396 0.22066444
-0.8593747 -0.2962448 0.13034403
-0.084542029 -0.0028084405 8.188962
-1.2187326 -0.39277369 8.1403208
-1.2158289 -0.39809665 6.1741424
-0.80144423 -0.26675949 2.747493
-1.0511991 -0.35265648 2.6716835
-1.0057602 -0.33895618 2.0122976
-0.96028715 -0.32473633 1.5614668
-0.94594121 -0.32042724 1.2723838
-0.46179724 -0.12469166 8.1108732
-0.83979696 -0.26073134 8.1580486
-0.6778869 -0.22293353 2.7849901
-0.93592888 -0.31111211 2.7362974
-1.0358989 -0.3465063 2.3223708
-0.9806428 -0.3293395 1.7622502
-0.9478097 -0.31903836 1.3990079
-0.93266737 -0.3146539 1.145367
-0.9253915 -0.31525815 1.0404975
-0.90908688 -0.31022489 0.85691494
-0.88846475 -0.3033562 0.70013404
-0.89419276 -0.30565214 0.58121794
-0.87807196 -0.30030793 0.46325746
-0.86720836 -0.29675636 0.35935616
-0.85971045 -0.29452053 0.26400685
-0.87137109 -0.29851243 0.17563838
-0.91916269 -0.31169942 0.94559801
-0.90191668 -0.30619481 0.77708322
-0.89152217 -0.30283445 0.63890344
-0.87756354 -0.29859787 0.51597857
-0.87222475 -0.29694587 0.40982375
-0.86513108 -0.29469407 0.31114873
-0.87176996 -0.29695269 0.22066444
-0.8604036 -0.29324323 0.13034403
-0.084551319 -0.0025133162 8.188962
-1.2200961 -0.38851711 8.1403208
-1.2152735 -0.39322358 6.1643515
-0.80237049 -0.26396033 2.747493
-1.0505692 -0.34837019 2.6670809
-1.0069373 -0.33544335 2.0122976
-0.96141487 -0.32138231 1.5614668
-0.94401449 -0.31610575 1.2685463
-0.46222967 -0.12307893 8.1108732
-0.840702 -0.25779831 8.1580486
-0.67746544 -0.2201777 2.7801504
-0.93536967 -0.3073048 2.7316046
-1.0350353 -0.34220505 2.3178697
-0.97931129 -0.32509294 1.7579843
-0.94891751 -0.31572795 1.3990079
-0.93375999 -0.31139636 1.145367
-0.92648631 -0.31202599 1.0404975
-0.91016424 -0.30704972 0.85691494
-0.88951826 -0.30025303 0.70013404
-0.89525419 -0.30252898 0.58121794
-0.87911493 -0.29724106 0.46325746
-0.86823899 -0.2937274 0.35935616
-0.86073333 -0.29151782 0.26400685
-0.87240779 -0.29546896 0.17563838
-0.92024517 -0.30848905 0.94559801
-0.90298003 -0.30304468 0.77708322
-0.89257383 -0.29972062 0.63890344
-0.87860054 -0.29553279 0.51597857
-0.87325597 -0.29389942 0.40982375
-0.86615449 -0.29167241 0.31114873
-0.87280118 -0.29390785 0.22066444
-0.86615628 -0.29183322 0.13054556
-0.084559575 -0.0022181624 8.188962
-1.2221861 -0.38448885 8.1452599
-1.213729 -0.38804936 6.1496658
-0.80186731 -0.26069662 2.7427208
-1.0480658 -0.34348443 2.657876
-1.0081021 -0.33192644 2.0122976
-0.95985883 -0.31714177 1.5573338
-0.94511217 -0.31280863 1.2685463
-0.46265647 -0.1214647 8.1108732
-0.84159672 -0.25486213 8.1580486
-0.67703301 -0.21742752 2.7753112
-0.93643671 -0.3040379 2.7316046
-1.0362234 -0.33859 2.3178697
-0.9779619 -0.32085967 1.7537184
-0.94715136 -0.31147254 1.395018
-0.93162155 -0.30707395 1.1416919
-0.92418611 -0.3076638 1.036993
-0.90753806 -0.30263957 0.85377645
-0.89056093 -0.2971462 0.70013404
-0.8921032 -0.2979987 0.57889915
-0.87575024 -0.29270107 0.46138445
-0.86925894 -0.29069492 0.35935616
-0.86174566 -0.28851151 0.26400685
-0.87343389 -0.29242188 0.17563838
-0.91777211 -0.30410069 0.94227254
-0.90403235 -0.29989082 0.77708322
-0.89361459 -0.29660314 0.63890344
-0.87532002 -0.29103228 0.51388049
-0.87427652 -0.29084942 0.40982375
-0.86716735 -0.28864717 0.31114873
-0.86912322 -0.28929549 0.21997377
-0.86716974 -0.28880796 0.13054556
-0.084566802 -0.0019229804 8.188962
-1.2235209 -0.38022026 8.1452599
-1.2131342 -0.38319725 6.1398754
-0.80277246 -0.25789598 2.7427208
-1.0473996 -0.33922213 2.6532736
-1.0069771 -0.32766464 2.0079086
-0.96096003 -0.31378928 1.5573338
-0.94315183 -0.30851135 1.2647089
-0.4633573 -0.11992073 8.1158657
-0.8424812 -0.25192288 8.1580486
-0.67658961 -0.21468306 2.7704716
-0.93749225 -0.30076727 2.7316046
-1.0353273 -0.3343021 2.3133683
-0.97659498 -0.31663978 1.7494525
-0.94536704 -0.30723333 1.3910279
-0.93268776 -0.3038201 1.1416919
-0.9252544 -0.30443591 1.036993
-0.90858895 -0.29946986 0.85377645
-0.8876217 -0.29272628 0.69739258
-0.89313793 -0.29488286 0.57889915
-0.87676662 -0.28964236 0.46138445
-0.86571366 -0.28615341 0.35794613
-0.86274749 -0.28550172 0.26400685
-0.87444925 -0.28937125 0.17563838
-0.91882801 -0.30089521 0.94227254
-0.90507364 -0.29673335 0.77708322
-0.89054835 -0.29213846 0.63637024
-0.87633055 -0.28797507 0.51388049
-0.87080055 -0.28632095 0.40818024
-0.86816961 -0.28561845 0.31114873
-0.87012774 -0.28625992 0.21997377
-0.86817259 -0.28577924 0.13054556
-0.084573001 -0.0016277753 8.188962
-1.2248405 -0.37594706 8.1452599
-1.2125202 -0.37835401 6.130085
-0.80366778 -0.25509223 2.7427208
-1.0467167 -0.33496869 2.6486709
-1.0081147 -0.32414764 2.0079086
-0.95937139 -0.309569 1.553201
-0.94422299 -0.30521721 1.2647089
-0.46377307 -0.11830258 8.1158657
-0.84335548 -0.24898052 8.1580486
-0.67733485 -0.21231999 2.7704716
-0.93853641 -0.29749298 2.7316046
-1.0364879 -0.33068609 2.3133683
-0.97521055 -0.31243336 1.7451864
-0.94643372 -0.3039315 1.3910279
-0.93051547 -0.29952398 1.1380167
-0.92631149 -0.30120432 1.036993
-0.90592778 -0.29509109 0.85063797
-0.88863808 -0.28962612 0.69739258
-0.88995057 -0.29038942 0.57658035
-0.87777233 -0.28658012 0.46138445
-0.86670727 -0.28312975 0.35794613
-0.86373883 -0.28248841 0.26400685
-0.87072074 -0.28476912 0.1751913
-0.9163202 -0.29653659 0.93894702
-0.90225857 -0.29232654 0.77414006
-0.8915627 -0.28902808 0.63637024
-0.87301379 -0.28351262 0.51178247
-0.87179464 -0.28327954 0.40818024
-0.86453885 -0.28108341 0.3099764
-0.86641228 -0.28168976 0.21928309
-0.86441404 -0.28120154 0.13034403
-0.084578171 -0.0013325509 8.188962
-1.2261455 -0.37166929 8.1452599
-1.2118874 -0.37351975 6.1202946
-0.80455333 -0.25228536 2.7427208
-1.0478796 -0.33131292 2.6486709
-1.0069574 -0.3199017 2.0035193
-0.96044612 -0.30621833 1.553201
-0.94222933 -0.30094439 1.2608713
-0.46418321 -0.11668299 8.1158657
-0.84421945 -0.24603514 8.1580486
-0.67807192 -0.20995435 2.7704716
-0.93956918 -0.29421505 2.7316046
-1.0355597 -0.32641181 2.3088672
-0.97629517 -0.30902734 1.7451864
-0.94461668 -0.29971486 1.3870379
-0.93155533 -0.29627401 1.1380167
-0.92396176 -0.29687822 1.0334884
-0.90695232 -0.29192701 0.85063797
-0.88964361 -0.28652242 0.69739258
-0.88674265 -0.28592181 0.57426155
-0.87876737 -0.28351435 0.46138445
-0.86312515 -0.27862906 0.35653609
-0.86471963 -0.27947167 0.26400685
-0.87170953 -0.28172797 0.1751913
-0.91734976 -0.29333624 0.93894702
-0.90327358 -0.28917527 0.77414006
-0.89256614 -0.28591418 0.63637024
-0.87399811 -0.28046349 0.51178247
-0.86828208 -0.27879113 0.40653673
-0.86551476 -0.27806389 0.3099764
-0.86739028 -0.27866369 0.21928309
-0.8653903 -0.27818245 0.13034403
-0.084582306 -0.0010373099 8.188962
-1.2274354 -0.367387 8.1452599
-1.2112355 -0.36869454 6.1105042
-0.80542904 -0.2494754 2.7427208
-1.0471648 -0.32707086 2.6440685
-1.0057827 -0.31566778 1.9991302
-0.95882511 -0.30201861 1.549068
-0.94327408 -0.29765356 1.2608713
-0.46458769 -0.11506198 8.1158657
-0.84507316 -0.24308676 8.1580486
-0.67880064 -0.20758617 2.7704716
-0.94059044 -0.29093355 2.7316046
-1.0366927 -0.32279503 2.3088672
-0.97487879 -0.3048394 1.7409205
-0.94565713 -0.29641572 1.3870379
-0.93258381 -0.29302049 1.1380167
-0.92499244 -0.29365119 1.0334884
-0.90796584 -0.28875938 0.85063797
-0.88665372 -0.28214741 0.69465113
-0.88773537 -0.28282475 0.57426155
-0.87533468 -0.27903724 0.4595114
-0.86409247 -0.27561447 0.35653609
-0.86101049 -0.27495724 0.26307425
-0.8679437 -0.27716854 0.17474423
-0.91480774 -0.28900766 0.93562156
-0.90042359 -0.28480172 0.7711969
-0.88944882 -0.28149623 0.6338371
-0.87064546 -0.27603942 0.50968438
-0.86924994 -0.27575856 0.40653673
-0.86648011 -0.27504098 0.3099764
-0.86363769 -0.27413607 0.21859241
-0.86159456 -0.2736477 0.1301425
-0.084628969 -0.00073976547 8.1939611
-1.2287103 -0.36310017 8.1452599
-1.2105649 -0.36387843 6.1007137
-0.80486751 -0.246226 2.7379491
-1.0464332 -0.32283783 2.6394658
-1.0045909 -0.31144604 1.9947413
-0.9598735 -0.29866987 1.549068
-0.94124728 -0.29340541 1.2570338
-0.4649865 -0.11343957 8.1158657
-0.84591651 -0.24013545 8.1580486
-0.67952114 -0.20521544 2.7704716
-0.94160026 -0.2876485 2.7316046
-1.0357323 -0.31853461 2.3043661
-0.97593701 -0.30143458 1.7409205
-0.94380754 -0.2922219 1.3830478
-0.93360102 -0.28976339 1.1380167
-0.92601186 -0.29042056 1.0334884
-0.90525484 -0.28442168 0.84749955
-0.8876332 -0.27905071 0.69465113
-0.88449168 -0.2783944 0.57194275
-0.87630332 -0.27598006 0.4595114
-0.86047399 -0.27115485 0.35512605
-0.861965 -0.27195007 0.26307425
-0.86890584 -0.27413714 0.17474423
-0.915811 -0.28581265 0.93562156
-0.90141225 -0.28165689 0.7711969
-0.89042598 -0.27838975 0.6338371
-0.87160373 -0.2729986 0.50968438
-0.87020725 -0.27272263 0.40653673
-0.86743492 -0.27201474 0.3099764
-0.85986412 -0.26963806 0.21790172
-0.86254454 -0.2706385 0.1301425
-0.084631041 -0.00044435039 8.1939611
-1.2299702 -0.35880899 8.1452599
-1.2098753 -0.35907149 6.0909233
-0.80572212 -0.24341498 2.7379491
-1.043816 -0.31804463 2.6302607
-1.0033818 -0.30723643 1.990352
-0.9582203 -0.29449096 1.544935
-0.93920231 -0.28917503 1.2531964
-0.46537963 -0.11181577 8.1158657
-0.84623617 -0.23703764 8.1530771
-0.6802333 -0.20284224 2.7704716
-0.94259858 -0.28435993 2.7316046
-1.034755 -0.3142848 2.299865
-0.97448862 -0.29726532 1.7366546
-0.94482183 -0.28892562 1.3830478
-0.93136543 -0.28550929 1.1343416
-0.92361343 -0.28613126 1.0299838
-0.90624219 -0.28126001 0.84749955
-0.8886019 -0.27595058 0.69465113
-0.88545805 -0.27530524 0.57194275
-0.87283468 -0.27154246 0.45763838
-0.86141521 -0.26814955 0.35512605
-0.85821927 -0.26747799 0.26214162
-0.86510307 -0.26962069 0.17429715
-0.91680306 -0.28261411 0.93562156
-0.89852762 -0.27731681 0.76825374
-0.89139235 -0.27527988 0.6338371
-0.86821556 -0.26861316 0.5075863
-0.87115389 -0.26968339 0.40653673
-0.86373615 -0.26754704 0.30880409
-0.86080009 -0.26663491 0.21790172
-0.86348391 -0.26762602 0.1301425
-0.084632076 -0.00014893066 8.1939611
-1.2304685 -0.35429856 8.1403208
-1.209167 -0.35427383 6.0811329
-0.80656689 -0.240601 2.7379491
-1.043049 -0.3138364 2.6256583
-1.0021555 -0.30303904 1.9859631
-0.95654964 -0.29032725 1.5408021
-0.94020599 -0.28589484 1.2531964
-0.46576712 -0.11019061 8.1158657
-0.84654456 -0.23394053 8.1481056
-0.68093723 -0.20046653 2.7704716
-0.94358552 -0.28106794 2.7316046
-1.0337604 -0.31004572 2.2953637
-0.97552031 -0.29386193 1.7366546
-0.94294 -0.2847549 1.3790579
-0.93235636 -0.28225645 1.1343416
-0.92460656 -0.28290552 1.0299838
-0.90721846 -0.27809492 0.84749955
-0.88955969 -0.27284712 0.69465113
-0.88217902 -0.27091244 0.56962395
-0.87377727 -0.26849404 0.45763838
-0.86234599 -0.26514104 0.35512605
-0.85914767 -0.26448062 0.26214162
-0.86603892 -0.26659927 0.17429715
-0.91778404 -0.27941215 0.93562156
-0.89949018 -0.27417865 0.76825374
-0.89234787 -0.27216667 0.6338371
-0.8691479 -0.26558089 0.5075863
-0.86757416 -0.26526025 0.40489322
-0.86466485 -0.26453042 0.30880409
-0.86172563 -0.26362854 0.21790172
-0.86441284 -0.26461026 0.1301425
-0.084632076 0.00014649106 8.1939611
-1.2316978 -0.35000128 8.1403208
-1.2084398 -0.34948546 6.0713425
-0.80596977 -0.23736262 2.7331769
-1.0422652 -0.30963737 2.6210558
-1.0009123 -0.29885399 1.9815739
-0.9575572 -0.2869865 1.5408021
-0.93812835 -0.28168958 1.2493588
-0.46586758 -0.10849921 8.1108732
-0.84735602 -0.23098411 8.1481056
-0.68163282 -0.19808839 2.7704716
-0.94290519 -0.27728587 2.7269118
-1.0306616 -0.30519947 2.2863612
-0.97654015 -0.29045492 1.7366546
-0.94392824 -0.28146169 1.3790579
-0.93008775 -0.27802944 1.1306664
-0.92217457 -0.27864495 1.0264792
-0.90445822 -0.27379885 0.84436107
-0.88650483 -0.26852825 0.69190961
-0.88311934 -0.26783139 0.56962395
-0.87470913 -0.26544237 0.45763838
-0.86326629 -0.26212928 0.35512605
-0.86006564 -0.26148 0.26214162
-0.86696428 -0.2635746 0.17429715
-0.91517806 -0.275132 0.93229604
-0.90044177 -0.27103716 0.76825374
-0.89329243 -0.26905015 0.6338371
-0.87006968 -0.26254535 0.5075863
-0.86849487 -0.26223022 0.40489322
-0.86092997 -0.26010486 0.30763176
-0.85790008 -0.25918683 0.21721105
-0.86054903 -0.26014563 0.12994097
-0.084631056 0.00044191166 8.1939611
-1.2321638 -0.34549013 8.1353817
-1.2086734 -0.34498581 6.0664473
-0.80679345 -0.23454782 2.7331769
-1.041465 -0.3054477 2.6164534
-0.99965215 -0.29468137 1.977185
-0.95585477 -0.28284398 1.5366691
-0.93910593 -0.27841321 1.2493588
-0.46624351 -0.10687236 8.1108732
-0.84815717 -0.22802489 8.1481056
-0.68111181 -0.19536158 2.7656324
-0.94386733 -0.27399281 2.7269118
-1.029631 -0.3009893 2.2818599
-0.97504562 -0.28630978 1.7323887
-0.94490492 -0.27816504 1.3790579
-0.93105263 -0.27478111 1.1306664
-0.91972417 -0.27440482 1.0229747
-0.90540844 -0.27064005 0.84436107
-0.88743675 -0.26543215 0.69190961
-0.88404888 -0.26474711 0.56962395
-0.87563038 -0.26238742 0.45763838
-0.86417603 -0.25911433 0.35512605
-0.86097318 -0.25847623 0.26214162
-0.86310941 -0.25911486 0.17385007
-0.91613287 -0.27193576 0.93229604
-0.89750779 -0.26674101 0.76531059
-0.89009416 -0.26470169 0.63130391
-0.86663121 -0.25821084 0.50548828
-0.86487955 -0.25784793 0.40324971
-0.86183268 -0.25709808 0.30763176
-0.85879964 -0.2561906 0.21721105
-0.86145186 -0.25714016 0.12994097
-0.084628992 0.00073732605 8.1939611
-1.2333622 -0.34118697 8.1353817
-1.2079098 -0.34021294 6.0566564
-0.80760729 -0.23173016 2.7331769
-1.0406482 -0.30126733 2.6118507
-1.0006747 -0.29119012 1.977185
-0.95683628 -0.2795057 1.5366691
-0.94007206 -0.27513343 1.2493588
-0.46661371 -0.10524423 8.1108732
-0.84946328 -0.22519922 8.1530771
-0.68178964 -0.19298288 2.7656324
-0.94481802 -0.2706964 2.7269118
-1.0285838 -0.29679006 2.2773588
-0.97603905 -0.28290451 1.7323887
-0.94297653 -0.27402434 1.3750678
-0.92875123 -0.27058136 1.1269913
-0.92067641 -0.27119273 1.0229747
-0.90261453 -0.26637635 0.84122264
-0.88434756 -0.26114866 0.6891681
-0.88496763 -0.26165959 0.56962395
-0.87654096 -0.25932932 0.45763838
-0.86047548 -0.25473458 0.35371602
-0.86187017 -0.25546932 0.26214162
-0.86400861 -0.25610048 0.17385007
-0.91707653 -0.26873618 0.93229604
-0.89843345 -0.26360649 0.76531059
-0.89101279 -0.26159307 0.63130391
-0.86752725 -0.25518414 0.50548828
-0.86577427 -0.25482738 0.40324971
-0.85806221 -0.25271496 0.30645946
-0.85968864 -0.25319126 0.21721105
-0.85755205 -0.25271934 0.12973943
-0.084625907 0.0010327321 8.1939611
-1.2345457 -0.33687964 8.1353817
-1.208109 -0.335722 6.0517616
-0.80841124 -0.22890967 2.7331769
-1.0398149 -0.29709643 2.6072483
-0.99938303 -0.28703436 1.9727957
-0.95510215 -0.27538458 1.5325361
-0.94102675 -0.27185026 1.2493588
-0.46697822 -0.10361479 8.1108732
-0.85024416 -0.22223267 8.1530771
-0.68245906 -0.19060181 2.7656324
-0.94575715 -0.26739675 2.7269118
-1.0275197 -0.29260179 2.2728574
-0.97451317 -0.27877864 1.7281228
-0.94392735 -0.27073106 1.3750678
-0.92643183 -0.26640105 1.123316
-0.91819292 -0.26698175 1.0194702
-0.90353882 -0.26322401 0.84122264
-0.88525367 -0.25806013 0.6891681
-0.88587564 -0.25856888 0.56962395
-0.87744087 -0.25626805 0.45763838
-0.86135948 -0.2517294 0.35371602
-0.86275667 -0.25245926 0.26214162
-0.86011773 -0.2516844 0.17340299
-0.91442221 -0.26449603 0.92897052
-0.89934814 -0.26046878 0.76531059
-0.88777995 -0.25728148 0.62877071
-0.86841273 -0.25215435 0.50548828
-0.86665851 -0.2518037 0.40324971
-0.85893911 -0.24971823 0.30645946
-0.86056721 -0.25018886 0.21721105
-0.85842896 -0.24972437 0.12973943
-0.084621787 0.0013281252 8.1939611
-1.2357141 -0.33256823 8.1353817
-1.2082915 -0.33123383 6.0468664
-0.80920535 -0.22608639 2.7331769
-1.0389652 -0.29293501 2.6026456
-1.0003788 -0.28354415 1.9727957
-0.95605761 -0.27204895 1.5325361
-0.93888748 -0.26768517 1.2455213
-0.46733707 -0.10198411 8.1108732
-0.85153103 -0.21939616 8.1580486
-0.68312025 -0.18821844 2.7656324
-0.94668478 -0.26409382 2.7269118
-1.0264391 -0.28842458 2.2683563
-0.97297037 -0.27466691 1.7238568
-0.94196719 -0.26661402 1.3710777
-0.92735618 -0.26316556 1.123316
-0.9191193 -0.26377502 1.0194702
-0.90071136 -0.258993 0.83808416
-0.88614911 -0.25496843 0.6891681
-0.89102942 -0.25670123 0.57194275
-0.87833005 -0.25320363 0.45763838
-0.8576237 -0.24739166 0.35230598
-0.8589133 -0.24808307 0.26120901
-0.86099106 -0.2486805 0.17340299
-0.91533995 -0.26130253 0.92897052
-0.90025181 -0.25732788 0.76531059
-0.88867265 -0.25418097 0.62877071
-0.86928761 -0.24912147 0.50548828
-0.86753225 -0.24877697 0.40324971
-0.85980558 -0.24671845 0.30645946
-0.86143529 -0.2471834 0.21721105
-0.85449356 -0.24534763 0.12953791
-0.08457315 0.0016199966 8.188962
-1.2368674 -0.32825273 8.1353817
-1.2094404 -0.32701412 6.0468664
-0.80998963 -0.22326037 2.7331769
-1.0380993 -0.28878316 2.5980432
-0.99905604 -0.27940559 1.9684068
-0.95700139 -0.26871005 1.5325361
-0.93981612 -0.2644062 1.2455213
-0.46797261 -0.10041215 8.1158657
-0.8522917 -0.21642244 8.1580486
-0.68498611 -0.18616208 2.7704716
-0.94926476 -0.26124534 2.7316046
-1.0253416 -0.28425846 2.263855
-0.97141075 -0.27056929 1.7195909
-0.94289207 -0.26332432 1.3710777
-0.92500448 -0.25901294 1.1196409
-0.91660315 -0.25959349 1.0159656
-0.90160996 -0.25584733 0.83808416
-0.88301128 -0.25073162 0.68642664
-0.89192009 -0.25358939 0.57194275
-0.87920856 -0.25013614 0.45763838
-0.858482 -0.24439649 0.35230598
-0.85505003 -0.24373683 0.26027638
-0.86185384 -0.24567357 0.17340299
-0.91265249 -0.25709355 0.92564505
-0.89725441 -0.25308669 0.76236743
-0.88540578 -0.24990654 0.62623757
-0.87015194 -0.24608558 0.50548828
-0.86839533 -0.24574719 0.40324971
-0.86066157 -0.24371567 0.30645946
-0.86229289 -0.24417493 0.21721105
-0.85534471 -0.24236341 0.12953791
-0.084566981 0.0019152013 8.188962
-1.2380058 -0.32393324 8.1353817
-1.2095907 -0.32252821 6.0419707
-0.81220454 -0.22082299 2.7379491
-1.0372168 -0.28464091 2.5934405
-1.0000253 -0.27591652 1.9684068
-0.95522165 -0.26461679 1.5284033
-0.9376449 -0.26026696 1.2416838
-0.46832028 -0.098778009 8.1158657
-0.85304195 -0.21344607 8.1580486
-0.68563181 -0.18376991 2.7704716
-0.95017087 -0.25793019 2.7316046
-1.0242279 -0.28010356 2.2593539
-0.97234929 -0.26717681 1.7195909
-0.9409005 -0.25923124 1.3670877
-0.92590296 -0.25578249 1.1196409
-0.91750371 -0.25639236 1.0159656
-0.90249747 -0.25269857 0.83808416
-0.88388109 -0.24764781 0.68642664
-0.89279985 -0.25047448 0.57194275
-0.88007635 -0.2470656 0.45763838
-0.85932988 -0.24139832 0.35230598
-0.85589558 -0.24075067 0.26027638
-0.86270612 -0.24266364 0.17340299
-0.9135443 -0.25390622 0.92564505
-0.89813232 -0.24995314 0.76236743
-0.88627273 -0.24681436 0.62623757
-0.87100559 -0.24304669 0.50548828
-0.86924785 -0.24271443 0.40324971
-0.861507 -0.2407099 0.30645946
-0.86790937 -0.24249601 0.21790172
-0.8561855 -0.23937623 0.12953791
-0.084559776 0.0022103838 8.188962
-1.2391289 -0.31960985 8.1353817
-1.2107091 -0.31830403 6.0419707
-0.8129704 -0.21798652 2.7379491
-1.0363183 -0.28050837 2.5888383
-0.99867129 -0.27179533 1.9640176
-0.9561395 -0.2612808 1.5284033
-0.93854767 -0.25699237 1.2416838
-0.46837941 -0.097084664 8.1108732
-0.85326415 -0.21033975 8.1530771
-0.68626904 -0.18137549 2.7704716
-0.95106548 -0.25461191 2.7316046
-1.0230974 -0.27595991 2.2548525
-0.97327602 -0.26378104 1.7195909
-0.94179964 -0.2559453 1.3670877
-0.92679018 -0.25254893 1.1196409
-0.91495508 -0.25224051 1.0124611
-0.89962226 -0.24851049 0.83494574
-0.88474017 -0.24456097 0.68642664
-0.89366871 -0.2473565 0.57194275
-0.8809334 -0.24399208 0.45763838
-0.86016732 -0.23839723 0.35230598
-0.85199738 -0.23644799 0.25934377
-0.86354792 -0.23965076 0.17340299
-0.91442508 -0.25071582 0.92564505
-0.89899939 -0.24681656 0.76236743
-0.88712883 -0.24371918 0.62623757
-0.8718487 -0.24000484 0.50548828
-0.86553717 -0.23842472 0.4016062
-0.86234206 -0.23770124 0.30645946
-0.86875057 -0.23946498 0.21790172
-0.85701585 -0.23638611 0.12953791
-0.08455155 0.002505539 8.188962
-1.240237 -0.31528252 8.1353817
-1.2118129 -0.31407589 6.0419707
-0.81372637 -0.21514739 2.7379491
-1.0354036 -0.27638561 2.5842357
-0.99961394 -0.26830769 1.9640176
-0.95432854 -0.25720957 1.5242703
-0.93634462 -0.25287914 1.2378463
-0.46871546 -0.09544912 8.1108732
-0.85399318 -0.20736001 8.1530771
-0.68811446 -0.17929551 2.7753112
-0.95361698 -0.25173074 2.7362974
-1.0219507 -0.27182755 2.2503514
-0.97419077 -0.26038209 1.7195909
-0.93977672 -0.25187635 1.3630977
-0.92766613 -0.24931228 1.1196409
-0.91582996 -0.24904515 1.0124611
-0.90048426 -0.24536872 0.83494574
-0.88155431 -0.24037133 0.68368518
-0.89452672 -0.24423552 0.57194275
-0.88177973 -0.24091554 0.45763838
-0.86099422 -0.23539324 0.35230598
-0.85281754 -0.23347253 0.25934377
-0.86918247 -0.23794986 0.17385007
-0.91169035 -0.24654779 0.92231953
-0.89595389 -0.24262059 0.75942427
-0.8879742 -0.24062105 0.62623757
-0.87268114 -0.23696004 0.50548828
-0.86636418 -0.23540197 0.4016062
-0.86316651 -0.23468964 0.30645946
-0.86958116 -0.236431 0.21790172
-0.85783577 -0.23339312 0.12953791
-0.084542282 0.0028006644 8.188962
-1.24133 -0.31095138 8.1353817
-1.2178346 -0.31110319 6.0664473
-0.81447244 -0.21230565 2.7379491
-1.0344728 -0.27227259 2.5796332
-0.99822921 -0.26420417 1.9596287
-0.95250088 -0.25315413 1.5201373
-0.93722165 -0.24960914 1.2378463
-0.46876258 -0.093756393 8.1058817
-0.85471183 -0.20437777 8.1530771
-0.68873614 -0.17689244 2.7753112
-0.95448983 -0.24840045 2.7362974
-1.0207875 -0.26770657 2.2458501
-0.97509384 -0.25697991 1.7195909
-0.94065022 -0.24859437 1.3630977
-0.92525369 -0.24520434 1.1159657
-0.91669375 -0.24584681 1.0124611
-0.9013353 -0.24222393 0.83494574
-0.882388 -0.23729266 0.68368518
-0.89109641 -0.23995979 0.56962395
-0.87813902 -0.23662998 0.45576534
-0.86181068 -0.2323864 0.35230598
-0.85362738 -0.23049422 0.25934377
-0.87000781 -0.23491441 0.17385007
-0.91254538 -0.24336389 0.92231953
-0.89679533 -0.23949166 0.75942427
-0.88880867 -0.23751998 0.62623757
-0.87350303 -0.23391238 0.50548828
-0.86718059 -0.23237637 0.4016062
-0.85928571 -0.23041637 0.30528715
-0.87040114 -0.23339416 0.21790172
-0.85864526 -0.2303973 0.12953791
-0.084532 0.0030957549 8.188962
-1.2424079 -0.30661646 8.1353817
-1.2238504 -0.30809224 6.0909233
-0.81520855 -0.20946132 2.7379491
-1.0354168 -0.26865998 2.5796332
-0.99914533 -0.26071808 1.9596287
-0.95337874 -0.24982774 1.5201373
-0.93498701 -0.24552222 1.2340088
-0.46880358 -0.0920645 8.1008902
-0.85541999 -0.20139301 8.1530771
-0.68934941 -0.17448722 2.7753112
-0.95869446 -0.24592434 2.745683
-1.0217158 -0.26414174 2.2458501
-0.97598487 -0.25357464 1.7195909
-0.93859631 -0.24454983 1.3591076
-0.92610395 -0.24197309 1.1159657
-0.91754627 -0.24264544 1.0124611
-0.90217531 -0.23907623 0.83494574
-0.8832109 -0.2342111 0.68368518
-0.89192861 -0.23684782 0.56962395
-0.87895966 -0.23356327 0.45576534
-0.8626166 -0.22937667 0.35230598
-0.85442674 -0.22751309 0.25934377
-0.87082249 -0.23187608 0.17385007
-0.91338933 -0.24017705 0.92231953
-0.89371711 -0.2353307 0.75648111
-0.8896324 -0.23441601 0.62623757
-0.87431413 -0.23086186 0.50548828
-0.86798644 -0.22934791 0.4016062
-0.86008477 -0.22741549 0.30528715
-0.87121052 -0.23035446 0.21790172
-0.85944432 -0.22739866 0.12953791
-0.084520675 0.0033908074 8.188962
-1.2434705 -0.30227774 8.1353817
-1.2298599 -0.30504307 6.1153998
-0.81593472 -0.20661443 2.7379491
-1.0344555 -0.26456016 2.5750306
-0.99772972 -0.25663239 1.9552395
-0.95152032 -0.24579467 1.5160043
-0.93583834 -0.24225703 1.2340088
-0.46883848 -0.090373456 8.0958986
-0.85611773 -0.19840582 8.1530771
-0.68873459 -0.171776 2.7704716
-0.96623939 -0.24426731 2.7644541
-1.020522 -0.26003635 2.241349
-0.97433758 -0.24951947 1.715325
-0.93944418 -0.24127203 1.3591076
-0.92365986 -0.23789352 1.1122906
-0.91493672 -0.23854157 1.0089566
-0.90300435 -0.23592559 0.83494574
-0.88402313 -0.2311267 0.68368518
-0.88846451 -0.23261113 0.56730521
-0.87976962 -0.23049369 0.45576534
-0.8587718 -0.22514771 0.35089597
-0.85521567 -0.22452921 0.25934377
-0.86680979 -0.22757037 0.17340299
-0.91422212 -0.23698723 0.92231953
-0.8945331 -0.23220962 0.75648111
-0.88627285 -0.23022547 0.62370437
-0.87950689 -0.22895178 0.5075863
-0.86878175 -0.22631668 0.4016062
-0.8608734 -0.22441185 0.30528715
-0.86721736 -0.22606286 0.21721105
-0.86023283 -0.22439726 0.12953791
-0.084508322 0.003685819 8.188962
-1.2445182 -0.2979354 8.1353817
-1.236852 -0.30219713 6.1447706
-0.81520259 -0.20340391 2.7331769
-1.0315838 -0.25999311 2.5658255
-0.99629784 -0.25255978 1.9508505
-0.95237249 -0.24247175 1.5160043
-0.93357247 -0.23819661 1.2301713
-0.46915108 -0.088736355 8.0958986
-0.85628539 -0.19529793 8.1481056
-0.68933004 -0.16937083 2.7704716
-0.97210979 -0.24214368 2.7785323
-1.0214235 -0.25647247 2.241349
-0.97267383 -0.24547887 1.7110591
-0.93735951 -0.23725212 1.3551177
-0.92119867 -0.23383398 1.1086154
-0.9157638 -0.23534639 1.0089566
-0.90005302 -0.23180147 0.83180726
-0.88482445 -0.22803947 0.68368518
-0.88927102 -0.22950839 0.56730521
-0.8760801 -0.22626215 0.45389232
-0.8595525 -0.22214867 0.35089597
-0.85599416 -0.2215426 0.25934377
-0.86759889 -0.22454327 0.17340299
-0.91142625 -0.23287044 0.91899407
-0.89533818 -0.2290857 0.75648111
-0.88707113 -0.2271304 0.62370437
-0.8846969 -0.22700825 0.50968438
-0.86956644 -0.22328269 0.4016062
-0.86165148 -0.22140548 0.30528715
-0.8632049 -0.22180197 0.21652037
-0.85617232 -0.22014898 0.12933637
-0.084494941 0.0039807856 8.188962
-1.2455506 -0.29358938 8.1353817
-1.2428495 -0.29906809 6.1692472
-0.8159076 -0.20055708 2.7331769
-1.0286927 -0.25544932 2.5566204
-0.99252611 -0.24792008 1.9420724
-0.95048368 -0.23846129 1.5118713
-0.93439823 -0.23493639 1.2301713
-0.46974194 -0.087150246 8.1008902
-0.85696191 -0.19230774 8.1481056
-0.68991703 -0.16696358 2.7704716
-0.97965306 -0.24039307 2.7973032
-1.0201993 -0.2523829 2.2368479
-0.97099376 -0.24145293 1.7067931
-0.93818194 -0.23397869 1.3551177
-0.92200929 -0.23061697 1.1086154
-0.91657978 -0.23214836 1.0089566
-0.90085667 -0.22865829 0.83180726
-0.88561511 -0.22494948 0.68368518
-0.89006674 -0.22640285 0.56730521
-0.87686455 -0.22320268 0.45389232
-0.86032265 -0.21914692 0.35089597
-0.85676229 -0.21855326 0.25934377
-0.86355197 -0.22028252 0.17295592
-0.91223353 -0.22968756 0.91899407
-0.89221305 -0.22497086 0.75353795
-0.88367867 -0.222978 0.62117118
-0.88548386 -0.22391871 0.50968438
-0.86576265 -0.2190876 0.39996269
-0.85770714 -0.21720324 0.30411482
-0.86397392 -0.21878748 0.21652037
-0.85693556 -0.21715905 0.12933637
-0.084480539 0.0042757033 8.188962
-1.2465678 -0.28923982 8.1353817
-1.2488399 -0.29590085 6.1937232
-0.81660271 -0.1977078 2.7331769
-1.0257827 -0.25092891 2.5474155
-0.99105972 -0.24388191 1.9376832
-0.95131028 -0.23514204 1.5118713
-0.93210143 -0.23090278 1.2263339
-0.47032744 -0.085561074 8.1058817
-0.85762793 -0.18931521 8.1481056
-0.69049561 -0.1645543 2.7704716
-0.98719597 -0.23859277 2.8160744
-1.0189588 -0.24830496 2.2323468
-0.97183067 -0.23806205 1.7067931
-0.93606669 -0.22998363 1.3511276
-0.91951692 -0.22658619 1.1049403
-0.91738451 -0.22894748 1.0089566
-0.90164936 -0.22551231 0.83180726
-0.88639498 -0.22185674 0.68368518
-0.88655472 -0.22221763 0.56498641
-0.8776384 -0.22014049 0.45389232
-0.8564297 -0.21497469 0.34948593
-0.85751998 -0.21556126 0.25934377
-0.86431563 -0.21726681 0.17295592
-0.91302973 -0.22650187 0.91899407
-0.89299285 -0.22185509 0.75353795
-0.88445163 -0.21989202 0.62117118
-0.88626009 -0.22082643 0.50968438
-0.86652213 -0.21606418 0.39996269
-0.85846013 -0.21420795 0.30411482
-0.85992765 -0.21457146 0.21582969
-0.85768837 -0.21416646 0.12933637
-0.084465094 0.0045705694 8.188962
-1.2475698 -0.28488672 8.1353817
-1.2558149 -0.29292652 6.2230945
-0.81728786 -0.19485614 2.7331769
-1.0209543 -0.24597451 2.5336077
-0.98724979 -0.23929304 1.928905
-0.95212525 -0.2318199 1.5118713
-0.93290174 -0.22764772 1.2263339
-0.47062322 -0.08391881 8.1058817
-0.85828352 -0.18632038 8.1481056
-0.69106585 -0.16214302 2.7704716
-0.99305934 -0.23634337 2.8301528
-1.0198194 -0.24474663 2.2323468
-0.97012049 -0.2340568 1.7025272
-0.93686372 -0.22671475 1.3511276
-0.92030227 -0.2233751 1.1049403
-0.91471505 -0.22489256 1.005452
-0.90243101 -0.22236359 0.83180726
-0.88310409 -0.21776032 0.68094373
-0.88732499 -0.21912163 0.56498641
-0.87840146 -0.21707562 0.45389232
-0.85717487 -0.21198387 0.34948593
-0.85826725 -0.21256664 0.25934377
-0.86506879 -0.21424848 0.17295592
-0.91018772 -0.22242722 0.91566855
-0.89376187 -0.2187366 0.75353795
-0.88102674 -0.21577802 0.61863804
-0.88702554 -0.21773146 0.50968438
-0.86727101 -0.21303815 0.39996269
-0.85448253 -0.21004982 0.30294251
-0.8606714 -0.21156846 0.21582969
-0.85357946 -0.2099779 0.12913485
-0.084448628 0.00486538 8.188962
-1.2485567 -0.28053015 8.1353817
-1.2617919 -0.28967944 6.2475705
-0.81796306 -0.19200207 2.7331769
-1.0142028 -0.24060617 2.5151978
-0.98574948 -0.2352896 1.9245161
-0.95292866 -0.22849494 1.5118713
-0.93057412 -0.22364108 1.2224963
-0.47091329 -0.082275517 8.1058817
-0.85892868 -0.18332326 8.1481056
-0.69162756 -0.15972976 2.7704716
-1.0022793 -0.23484284 2.8536165
-1.018549 -0.24068488 2.2278454
-0.9683941 -0.2300664 1.6982613
-0.93471825 -0.22274479 1.3471376
-0.92107642 -0.22016127 1.1049403
-0.9154945 -0.22169822 1.005452
-0.9032017 -0.21921217 0.83180726
-0.8838588 -0.2146764 0.68094373
-0.88378006 -0.21497606 0.56266761
-0.87915385 -0.21400809 0.45389232
-0.85790956 -0.20899047 0.34948593
-0.85900396 -0.20956944 0.25934377
-0.86581135 -0.21122751 0.17295592
-0.91095865 -0.21924873 0.91566855
-0.89451998 -0.21561547 0.75353795
-0.8817746 -0.21270135 0.61863804
-0.88336873 -0.21356741 0.5075863
-0.86800939 -0.2100095 0.39996269
-0.85521048 -0.20706584 0.30294251
-0.86140472 -0.20856287 0.21582969
-0.85430723 -0.20699707 0.12913485
-0.084431127 0.005160131 8.188962
-1.2495283 -0.27617016 8.1353817
-1.2677616 -0.28639421 6.2720466
-0.81862831 -0.18914568 2.7331769
-1.0150366 -0.23706448 2.5151978
-0.98423326 -0.23129952 1.9201269
-0.95372045 -0.22516723 1.5118713
-0.92822993 -0.21965352 1.2186587
-0.47119761 -0.080631226 8.1058817
-0.85956335 -0.18032394 8.1481056
-0.69218093 -0.15731455 2.7704716
-1.0047746 -0.23173043 2.8583093
-1.0172625 -0.23663497 2.2233443
-0.96919131 -0.22668467 1.6982613
-0.93549001 -0.21948065 1.3471376
-0.9218393 -0.21694478 1.1049403
-0.91626275 -0.21850121 1.005452
-0.90017569 -0.2151534 0.82866883
-0.88460284 -0.21158984 0.68094373
-0.88452512 -0.21188977 0.56266761
-0.87989551 -0.21093796 0.45389232
-0.85863388 -0.20599455 0.34948593
-0.8597303 -0.20656967 0.25934377
-0.86654341 -0.20820399 0.17295592
-0.91171843 -0.21606754 0.91566855
-0.89133441 -0.21155842 0.75059479
-0.87831753 -0.20862602 0.61610484
-0.88410878 -0.21048257 0.5075863
-0.86873722 -0.20697831 0.39996269
-0.85592806 -0.20407933 0.30294251
-0.86212742 -0.20555472 0.21582969
-0.85502458 -0.20401372 0.12913485
-0.084412605 0.0054548192 8.188962
-1.2504847 -0.27180684 8.1353817
-1.2737236 -0.28307077 6.2965231
-0.81928355 -0.18628699 2.7331769
-1.0196658 -0.23439485 2.5244026
-0.98503458 -0.22786251 1.9201269
-0.95450062 -0.22183673 1.5118713
-0.92586935 -0.21568504 1.2148212
-0.47119138 -0.078938842 8.1008902
-0.86070973 -0.17742977 8.1530771
-0.69272584 -0.15489744 2.7704716
-1.0224065 -0.232039 2.905237
-1.0180823 -0.23308262 2.2233443
-0.96743506 -0.22271527 1.6939954
-0.93625051 -0.21621384 1.3471376
-0.92259097 -0.21372564 1.1049403
-0.91354793 -0.21448657 1.0019474
-0.90092129 -0.21200988 0.82866883
-0.88126588 -0.20754232 0.67820227
-0.88094795 -0.20778412 0.56034881
-0.88062644 -0.20786528 0.45389232
-0.8593477 -0.2029961 0.34948593
-0.8604461 -0.2035674 0.25934377
-0.86726493 -0.20517792 0.17295592
-0.90883094 -0.21203558 0.91234308
-0.89206743 -0.20844579 0.75059479
-0.87904042 -0.20555884 0.61610484
-0.88041931 -0.20635957 0.50548828
-0.86945438 -0.20394459 0.39996269
-0.85663521 -0.20109035 0.30294251
-0.8628397 -0.20254409 0.21582969
-0.85573149 -0.20102787 0.12913485
-0.084393047 0.0057494408 8.188962
-1.2514259 -0.26744017 8.1353817
-1.2796776 -0.27970919 6.3209987
-0.81992882 -0.18342601 2.7331769
-1.0223836 -0.23126496 2.5290053
-0.9834888 -0.2238913 1.9157379
-0.95526916 -0.21850356 1.5118713
-0.92661655 -0.21245183 1.2148212
-0.47146407 -0.077293597 8.1008902
-0.86132377 -0.17442425 8.1530771
-0.69326234 -0.15247843 2.7704716
-1.0181576 -0.22734119 2.8911588
-1.016766 -0.22904922 2.218843
-0.96566302 -0.21876091 1.6897295
-0.93406111 -0.21227682 1.3431475
-0.92002594 -0.20975049 1.1012651
-0.91429114 -0.21129638 1.0019474
-0.89786386 -0.20798555 0.82553035
-0.88198495 -0.20446487 0.67820227
-0.88166785 -0.20470776 0.56034881
-0.88134664 -0.20479006 0.45389232
-0.85537863 -0.19890875 0.3480759
-0.86115146 -0.20056266 0.25934377
-0.86797583 -0.20214935 0.17295592
-0.90956551 -0.20886187 0.91234308
-0.8927896 -0.20533063 0.75059479
-0.87975264 -0.20248915 0.61610484
-0.88113427 -0.20328507 0.50548828
-0.86555988 -0.19984612 0.39831915
-0.85733193 -0.1980989 0.30294251
-0.86354148 -0.19953099 0.21582969
-0.85642797 -0.19803959 0.12913485
-0.084372461 0.0060439929 8.188962
-1.2523518 -0.26307026 8.1353817
-1.2846282 -0.27609569 6.3405795
-0.81910634 -0.18024229 2.728405
-1.0250915 -0.22811894 2.5336077
-0.98426437 -0.22045693 1.9157379
-0.95602608 -0.21516772 1.5118713
-0.92735255 -0.20921603 1.2148212
-0.47173098 -0.075647406 8.1008902
-0.86192739 -0.1714166 8.1530771
-0.69379038 -0.15005757 2.7704716
-1.0071461 -0.22119595 2.8583093
-1.0175593 -0.22549865 2.218843
-0.96387506 -0.21482162 1.6854634
-0.93479645 -0.20901504 1.3431475
-0.92075253 -0.20653772 1.1012651
-0.91502309 -0.20810363 1.0019474
-0.89858437 -0.20485015 0.82553035
-0.87861657 -0.20045497 0.67546082
-0.88237703 -0.20162892 0.56034881
-0.87753689 -0.20067894 0.45201927
-0.85606778 -0.1959217 0.3480759
-0.86184633 -0.19755545 0.25934377
-0.8638221 -0.19800569 0.17250884
-0.90664703 -0.20486285 0.90901756
-0.89350098 -0.20221294 0.75059479
-0.88045406 -0.19941701 0.61610484
-0.88183856 -0.2002081 0.50548828
-0.86625212 -0.19682354 0.39831915
-0.85801822 -0.19510506 0.30294251
-0.86423266 -0.19651546 0.21582969
-0.86198545 -0.19615743 0.12933637
-0.084350847 0.0063384706 8.188962
-1.2532624 -0.25869709 8.1353817
-1.2895693 -0.27245107 6.3601604
-0.81973046 -0.17738198 2.728405
-1.0258815 -0.22453931 2.5336077
-0.98502785 -0.21701984 1.9157379
-0.95402372 -0.21122114 1.5077385
-0.92807716 -0.20597771 1.2148212
-0.47199219 -0.074000299 8.1008902
-0.86252052 -0.16840689 8.1530771
-0.69430995 -0.14763488 2.7704716
-0.98598331 -0.21294583 2.7973032
-1.0183402 -0.22194532 2.218843
-0.9646191 -0.21145578 1.6854634
-0.93552035 -0.20575072 1.3431475
-0.92146784 -0.20332246 1.1012651
-0.91226369 -0.20412976 0.99844289
-0.89929396 -0.20171225 0.82553035
-0.87931097 -0.1973868 0.67546082
-0.88307548 -0.19854763 0.56034881
-0.87823206 -0.19761454 0.45201927
-0.85674644 -0.19293228 0.3480759
-0.86253071 -0.19454584 0.25934377
-0.86450803 -0.19498917 0.17250884
-0.90735656 -0.20169681 0.90901756
-0.89025593 -0.19821452 0.74765164
-0.88114482 -0.19634244 0.61610484
-0.882532 -0.1971287 0.50548828
-0.86693394 -0.19379856 0.39831915
-0.85869402 -0.19210882 0.30294251
-0.8649134 -0.19349752 0.21582969
-0.86266494 -0.19314735 0.12933637
-0.084316507 0.0067800414 8.188962
-1.2546438 -0.25191256 8.1353817
-1.295014 -0.26628953 6.3797417
-0.82070839 -0.172801 2.728405
-1.0290306 -0.2192131 2.5382104
-0.98622453 -0.21151507 1.9157379
-0.95247352 -0.20513062 1.5036055
-0.92924809 -0.20062897 1.2148212
-0.47243541 -0.071115695 8.1008902
-0.86303777 -0.16288561 8.1481056
-0.69522387 -0.14326951 2.7704716
-0.9636547 -0.20179781 2.7316046
-1.0176224 -0.21491496 2.2143419
-0.96341336 -0.20468038 1.6811975
-0.93682951 -0.19970515 1.3431475
-0.92279613 -0.19720662 1.1012651
-0.91332 -0.19935039 0.99844289
-0.89656967 -0.19601251 0.82239193
-0.87628126 -0.19173278 0.67271936
-0.87980968 -0.19281863 0.55803001
-0.87932205 -0.19270651 0.45201927
-0.85781068 -0.18814431 0.3480759
-0.86363685 -0.18957481 0.25934377
-0.86078554 -0.18878886 0.17206176
-0.90492207 -0.1953626 0.90569204
-0.89145011 -0.19277258 0.74765164
-0.88236105 -0.1908022 0.61610484
-0.88378662 -0.19142547 0.50548828
-0.86816734 -0.18819614 0.39831915
-0.85994929 -0.18640956 0.30294251
-0.86617768 -0.18775699 0.21582969
-0.86395961 -0.18727094 0.12933637
-0.084292322 0.0070743207 8.188962
-1.2554723 -0.24775063 8.1353817
-1.298884 -0.26259845 6.3944273
-0.82124716 -0.17022182 2.728405
-1.0297141 -0.21597923 2.5382104
-0.98688424 -0.2084157 1.9157379
-0.95032519 -0.20171955 1.4994725
-0.92983925 -0.19787095 1.2148212
-0.47261998 -0.069878623 8.1008902
-0.86343324 -0.16077633 8.1481056
-0.69434011 -0.14131995 2.7656324
-0.960765 -0.19874385 2.7222192
-1.0181073 -0.21260551 2.2143419
-0.96387529 -0.20249395 1.6811975
-0.93433166 -0.19695769 1.3391576
-0.91989028 -0.19457211 1.09759
-0.91401029 -0.19616108 0.99844289
-0.89721471 -0.1930383 0.82239193
-0.87691224 -0.18882588 0.67271936
-0.88044417 -0.18990001 0.55803001
-0.87992311 -0.18994309 0.45201927
-0.85839748 -0.1854485 0.3480759
-0.86419553 -0.18701153 0.25934377
-0.86130935 -0.18638435 0.17206176
-0.90543044 -0.19299285 0.90569204
-0.89195174 -0.19043812 0.74765164
-0.88282466 -0.18864563 0.61610484
-0.88421863 -0.18941973 0.50548828
-0.86859208 -0.18622585 0.39831915
-0.86033779 -0.18460807 0.30294251
-0.86172712 -0.18490356 0.21513902
-0.8643176 -0.1856119 0.12933637
-0.084267117 0.0073685125 8.188962
-1.2563294 -0.2433667 8.1353817
-1.3017902 -0.25845912 6.4042177
-0.82183635 -0.16735409 2.728405
-1.0285482 -0.21198937 2.5336077
-0.98995066 -0.20545605 1.9201269
-0.95102352 -0.19840108 1.4994725
-0.93052429 -0.19462401 1.2148212
-0.47286102 -0.068228446 8.1008902
-0.86398911 -0.15776139 8.1481056
-0.69482911 -0.13889539 2.7656324
-0.9597618 -0.19504549 2.7175262
-1.0167106 -0.20861296 2.2098405
-0.96202207 -0.19860107 1.6769315
-0.93501347 -0.19369507 1.3391576
-0.92056388 -0.19135989 1.09759
-0.91119999 -0.19223341 0.99493837
-0.89788306 -0.18990527 0.82239193
-0.87756604 -0.18576375 0.67271936
-0.87676823 -0.1859068 0.55571121
-0.87604582 -0.18590815 0.45014626
-0.85434711 -0.18145445 0.34666586
-0.86484301 -0.18399377 0.25934377
-0.86195469 -0.18337668 0.17206176
-0.90609854 -0.18983114 0.90569204
-0.89261103 -0.18732347 0.74765164
-0.88347781 -0.18556285 0.61610484
-0.88487446 -0.18633209 0.50548828
-0.86923683 -0.18319276 0.39831915
-0.85622096 -0.18060072 0.30177018
-0.86236733 -0.18189445 0.21513902
-0.86496019 -0.18259375 0.12933637
-0.084240884 0.0076626148 8.188962
-1.2571713 -0.23897982 8.1353817
-1.3046834 -0.25430274 6.4140081
-0.82241553 -0.16448432 2.728405
-1.029282 -0.20839776 2.5336077
-0.99066186 -0.20199922 1.9201269
-0.94895357 -0.1945153 1.4953396
-0.931198 -0.19137467 1.2148212
-0.47309628 -0.066577442 8.1008902
-0.86453456 -0.15474455 8.1481056
-0.69407618 -0.13622735 2.7607927
-0.96043676 -0.1916941 2.7175262
-1.0152987 -0.20463282 2.2053394
-0.96270937 -0.19524175 1.6769315
-0.93568397 -0.19043007 1.3391576
-0.91790462 -0.18746717 1.0939147
-0.91186541 -0.18905155 0.99493837
-0.8985405 -0.1867699 0.82239193
-0.87820911 -0.18269934 0.67271936
-0.87741184 -0.18284518 0.55571121
-0.87668943 -0.18284906 0.45014626
-0.85497534 -0.17847112 0.34666586
-0.86548001 -0.1809738 0.25934377
-0.85771501 -0.17934754 0.17161468
-0.90309846 -0.18591438 0.90236646
-0.88930076 -0.18339032 0.74470848
-0.87989831 -0.18160658 0.61357164
-0.8855195 -0.18324216 0.50548828
-0.86987102 -0.18015744 0.39831915
-0.85684615 -0.17761084 0.30177018
-0.85814798 -0.17787804 0.21444833
-0.86070061 -0.17855854 0.12913485
-0.084213622 0.0079566231 8.188962
-1.2579978 -0.23459001 8.1353817
-1.3075632 -0.25012925 6.4237986
-0.82444942 -0.16189992 2.7331769
-1.0280869 -0.20442283 2.5290053
-0.9913609 -0.19853994 1.9201269
-0.9496268 -0.19120166 1.4953396
-0.92871851 -0.18748894 1.2109838
-0.47361192 -0.06496425 8.1058817
-0.86559457 -0.15181765 8.1530771
-0.69454753 -0.13380374 2.7607927
-0.96110004 -0.18834038 2.7175262
-1.0160068 -0.20108752 2.2053394
-0.96338511 -0.19188009 1.6769315
-0.93338817 -0.18657233 1.3351675
-0.91855347 -0.18426193 1.0939147
-0.90902531 -0.18515581 0.9914338
-0.89537334 -0.18285362 0.81925344
-0.87884152 -0.17963269 0.67271936
-0.87370491 -0.17889285 0.55339235
-0.87732238 -0.17978773 0.45014626
-0.85559309 -0.1754856 0.34666586
-0.86129469 -0.176963 0.25841114
-0.85833579 -0.17635247 0.17161468
-0.9037419 -0.18276085 0.90236646
-0.88993549 -0.18028496 0.74470848
-0.876302 -0.17767756 0.61103851
-0.88170624 -0.17924595 0.50339019
-0.8704946 -0.17711993 0.39831915
-0.85269803 -0.17364892 0.30059788
-0.85876369 -0.17488146 0.21444833
-0.86131865 -0.17555305 0.12913485
-0.08418534 0.0082505345 8.188962
-1.2580447 -0.23005776 8.1304436
-1.3094292 -0.24575116 6.4286938
-0.82500947 -0.15902108 2.7331769
-1.0287943 -0.2008329 2.5290053
-0.98969793 -0.19461633 1.9157379
-0.94752777 -0.18734005 1.4912066
-0.92936724 -0.18424596 1.2109838
-0.4738358 -0.063310638 8.1058817
-0.86611921 -0.14879523 8.1530771
-0.6950103 -0.1313785 2.7607927
-0.96175164 -0.18498437 2.7175262
-1.0145655 -0.19712475 2.2008381
-0.96404898 -0.18851608 1.6769315
-0.93403369 -0.18331307 1.3351675
-0.91586471 -0.18039946 1.0902396
-0.90966612 -0.18198159 0.9914338
-0.89600617 -0.17972706 0.81925344
-0.8794632 -0.17656387 0.67271936
-0.87432402 -0.17584196 0.55339235
-0.87339985 -0.17580947 0.44827321
-0.85149789 -0.1715506 0.34525582
-0.85709202 -0.17298366 0.25747854
-0.8589462 -0.17335525 0.17161468
-0.90437436 -0.17960508 0.90236646
-0.89055938 -0.17717741 0.74470848
-0.87691689 -0.17461762 0.61103851
-0.88232648 -0.17616713 0.50339019
-0.86647695 -0.17315495 0.39667568
-0.85329902 -0.17067139 0.30059788
-0.85936892 -0.17188276 0.21444833
-0.86192614 -0.17254543 0.12913485
-0.084156021 0.0085443472 8.188962
-1.2588401 -0.22566497 8.1304436
-1.3112805 -0.24136305 6.433589
-0.82555956 -0.15614028 2.7331769
-1.0275701 -0.19687308 2.5244026
-0.99037123 -0.19116047 1.9157379
-0.94817591 -0.18403141 1.4912066
-0.93000478 -0.18100075 1.2109838
-0.47405389 -0.061656259 8.1058817
-0.86663336 -0.14577101 8.1530771
-0.69546467 -0.12895167 2.7607927
-0.96239144 -0.1816261 2.7175262
-1.0152473 -0.19358206 2.2008381
