# .PCD v0.7 - Point Cloud Data file format
VERSION 0.7
FIELDS x y z
SIZE 4 4 4
TYPE F F F
COUNT 1 1 1
WIDTH 1574
HEIGHT 1
VIEWPOINT 0 0 0 1 0 0 0
POINTS 1574
DATA ascii
0.77311999 12.120155 8.9266949
0.87230557 13.712604 8.1599121
1.5597615 24.723209 11.539146
1.3384523 21.274372 7.5081396
1.2705799 20.308487 0.91450089
0.020520361 0.058276605 5.5690613
0.067457035 0.81536001 5.2014627
0.081656344 1.0450251 5.0629253
0.1102555 1.5033973 4.8662539
0.041934416 0.32145086 5.4453278
0.053431798 0.57194221 5.3143492
0.09847758 1.2792255 4.9772491
0.18419859 2.4980924 6.8659315
0.4255034 5.9229221 12.342072
0.84988087 12.932662 10.532776
0.81124854 12.377753 8.2172337
1.9785722 30.431646 12.409461
1.3462161 20.761599 6.2053523
1.2917516 20.029844 3.902158
1.3034598 20.211348 1.9111992
0.92580289 13.686395 12.298856
0.80348098 11.939936 8.7971954
1.6961809 25.270893 14.969096
1.6403222 24.631575 11.499284
1.4123925 21.264856 7.506496
1.3322163 20.110706 2.9032657
1.3414621 20.303926 0.91450089
0.020705627 0.058164887 5.5640616
0.070302762 0.81511956 5.2014627
0.085303664 1.0447336 5.0629253
0.11550267 1.5030034 4.8662539
0.043056235 0.32130253 5.4453278
0.055427924 0.57175219 5.3143492
0.10294231 1.2788739 4.9772491
0.19890207 2.5748584 7.0771065
0.44601205 5.91923 12.337572
0.81787276 11.815191 9.6320391
0.86165106 12.479134 8.2857704
1.8211164 26.508926 13.995475
2.0851035 30.429182 12.411335
1.4229318 20.818989 6.2236824
1.3609943 20.015411 3.9002926
1.3736646 20.201706 1.9107521
0.97993171 13.772463 12.378667
0.93707693 13.235333 9.744894
1.7813452 25.221817 14.943765
1.4862827 21.255089 7.5048528
1.4005411 20.079208 4.9453197
1.4027523 20.110874 2.9039567
1.4126744 20.304102 0.91470236
0.020908535 0.058092255 5.5640616
0.073147632 0.81486917 5.2014627
0.088949949 1.0444295 5.0629253
0.12074843 1.502591 4.8662539
0.044177525 0.32115027 5.4453278
0.057477053 0.57208556 5.3193207
0.10740579 1.2785069 4.9772491
0.20955677 2.5947893 7.1334195
0.4665001 5.9154668 12.333071
0.85995758 11.82391 9.6414547
0.91609973 12.626185 8.3844633
1.9101293 26.453808 13.969969
2.1969707 30.500324 12.443176
1.5024712 20.90959 6.251883
1.430853 20.010538 3.9002926
1.4406216 20.147116 1.9062814
1.0321707 13.824811 12.428551
0.99884754 13.441587 9.8979368
1.8687377 25.206848 14.938698
1.858887 25.253201 11.793011
1.5601219 21.24506 7.5032086
1.4706219 20.074198 4.9453197
1.4722201 20.095976 2.9025753
1.4839044 20.304029 0.91490388
0.021092879 0.057979316 5.5590615
0.075919166 0.81383532 5.1965237
0.092595145 1.0441127 5.0629253
0.12599272 1.5021603 4.8662539
0.045298278 0.32099411 5.4453278
0.059473652 0.57188147 5.3193207
0.11186796 1.2781241 4.9772491
0.82225037 9.7526083 26.669405
0.48696741 5.9116335 12.328569
0.90063363 11.813074 9.6351776
0.94589573 12.435288 8.261097
2.0051341 26.482315 13.988519
1.576892 20.923351 6.2575231
1.500694 20.005423 3.9002926
0.78898644 10.517819 1.0398421
1.0801309 13.817401 12.425224
2.2575698 29.009243 21.270309
1.9550459 25.178682 14.926032
1.9438852 25.205832 11.774128
1.6339092 21.234777 7.5015655
1.5410572 20.07379 4.9464922
1.54198 20.085775 2.9018843
1.5547698 20.298727 0.91490388
0.021295136 0.057905335 5.5590615
0.078759514 0.81356537 5.1965237
0.096239217 1.0437831 5.0629253
0.13123547 1.5017114 4.8662539
0.046418484 0.32083404 5.4453278
0.061469533 0.57167035 5.3193207
0.11632875 1.2777258 4.9772491
0.85598636 9.7462416 26.660021
0.50759989 5.9098973 12.328569
0.94093519 11.798218 9.6257629
0.98697525 12.402735 8.2419071
2.0972126 26.470739 13.9862
1.9111549 24.175892 9.8864861
1.6510501 20.932066 6.2617531
1.5705168 20.000061 3.9002926
2.3568516 28.977016 21.252651
2.0376933 25.107254 14.888034
2.0511909 25.438654 11.885324
1.7076437 21.224236 7.4999218
1.6111184 20.068287 4.9464922
1.6128757 20.090143 2.9032657
1.6256161 20.293175 0.91490388
0.021497134 0.057830647 5.5590615
0.081598908 0.81328547 5.1965237
0.099882111 1.0434408 5.0629253
0.13634133 1.4997575 4.8614817
0.047494907 0.32038465 5.4403362
0.063464664 0.57145232 5.3193207
0.12078814 1.2773119 4.9772491
0.23656036 2.5907342 7.1287265
0.5282262 5.9080896 12.328569
1.222096 14.676875 11.957636
1.0261078 12.349209 8.2090092
2.2005587 26.595699 14.055764
1.9657781 23.808701 9.7403898
1.7241067 20.926176 6.2617531
1.6403205 19.994459 3.9002926
1.6547763 20.170633 1.9098581
1.2260163 14.389889 12.944002
1.0486473 12.359068 9.115057
1.7813247 21.213442 7.4982786
1.68116 20.062542 4.9464922
1.6829935 20.084393 2.9032657
1.6964425 20.287376 0.91490388
0.021698868 0.057755254 5.5590615
0.084437311 0.81299567 5.1965237
0.10352379 1.0430858 5.0629253
0.14157563 1.4992725 4.8614817
0.048612963 0.32021689 5.4403362
0.065459013 0.57122731 5.3193207
0.12524606 1.2768825 4.9772491
0.24543925 2.5881743 7.1240339
0.54884607 5.9062095 12.328569
1.2723107 14.660887 11.948221
1.0789499 12.458029 8.2830296
2.2865291 26.508413 14.014026
2.0484762 23.797073 9.7385159
1.7983741 20.93437 6.2659836
1.7101042 19.988609 3.9002926
1.7272973 20.189541 1.9120934
1.2861378 14.497096 13.043767
1.0889356 12.323121 9.0915117
2.5065742 28.593063 13.35606
1.8553625 21.207094 7.4982786
1.7511811 20.056551 4.9464922
1.7535218 20.08333 2.9039567
1.7672484 20.281332 0.91490388
0.021900341 0.057679158 5.5590615
0.087274678 0.81269598 5.1965237
0.10716421 1.0427181 5.0629253
0.14680821 1.4987692 4.8614817
0.049730435 0.32004526 5.4403362
0.067389637 0.57046598 5.3143492
0.12970245 1.2764376 4.9772491
0.25413418 2.5838675 7.1146483
0.56925017 5.9020905 12.324068
2.1319449 23.794397 9.7403898
1.8714377 20.927965 6.2659836
1.7803029 19.987413 3.9012256
1.795994 20.163548 1.910305
2.8059046 30.420382 27.290211
1.1219587 12.210568 9.0120459
1.9293779 21.200489 7.4982786
1.8211808 20.050316 4.9464922
1.823615 20.077085 2.9039567
1.8380327 20.27504 0.91490388
0.022120541 0.05764164 5.5640616
0.090110987 0.81238639 5.1965237
0.11069547 1.0413251 5.0580301
0.15203898 1.4982476 4.8614817
0.050847299 0.3198697 5.4403362
0.069380529 0.57022732 5.3143492
0.13415726 1.2759771 4.9772491
0.262802 2.5795307 7.1052628
0.58984882 5.9000673 12.324068
1.1528394 12.287718 10.033762
1.2719421 13.582587 9.0287085
2.2149899 23.78681 9.7403898
1.9449222 20.926079 6.2673936
1.8505141 19.985968 3.902158
1.8636123 20.127403 1.9076226
2.9152772 30.443851 27.320139
1.1703331 12.266933 9.0561934
3.6470819 38.510616 17.969677
2.0033696 21.193624 7.4982786
1.8911585 20.043839 4.9464922
1.8941511 20.075529 2.9046471
1.9087945 20.268499 0.91490388
0.022321614 0.057564076 5.5640616
0.093034826 0.81283879 5.2014627
0.1143297 1.0409323 5.0580301
0.15742394 1.4991924 4.8662539
0.052010741 0.31997505 5.4453278
0.071370572 0.56998163 5.3143492
0.13861042 1.275501 4.9772491
0.2716237 2.5768816 7.1005697
0.61044031 5.8979726 12.324068
1.1953474 12.279746 10.030623
1.3221773 13.607198 9.0478983
2.3029132 23.829691 9.760993
2.005059 20.785467 6.2279129
1.9202667 19.979387 3.902158
3.0182087 30.400051 27.290211
1.285571 12.994845 9.5918493
2.0768759 21.181801 7.4966345
1.961113 20.037113 4.9464922
1.9646986 20.073723 2.905338
1.9795332 20.261715 0.91490388
0.022522412 0.057485808 5.5640616
0.095871598 0.81250912 5.2014627
0.11796253 1.0405269 5.0580301
0.16265616 1.4986337 4.8662539
0.053127341 0.31979156 5.4453278
0.073359743 0.56972903 5.3143492
0.14306192 1.2750094 4.9772491
0.28061703 2.5759177 7.1005697
0.63102436 5.8958058 12.324068
2.5609069 25.388323 20.657436
2.877393 28.575752 18.914436
2.3907006 23.867634 9.7797232
2.0671015 20.673328 6.1968918
1.9904833 19.977451 3.9030907
3.1250699 30.396757 27.29686
1.340811 13.086781 9.6624842
3.3578453 32.829704 19.478155
4.0201373 39.509174 18.445936
2.1508014 21.174423 7.4966345
2.0310438 20.030146 4.9464922
2.0357561 20.076593 2.906719
2.050751 20.259653 0.91510546
0.022722939 0.057406839 5.5640616
0.098707199 0.81216949 5.2014627
0.12171238 1.0411202 5.0629253
0.16805278 1.4995403 4.871026
0.054243304 0.31960416 5.4453278
0.07534802 0.56946951 5.3143492
0.14751166 1.2745023 4.9772491
0.28941402 2.5732079 7.0958776
0.65160072 5.8935671 12.324068
2.6458757 25.344387 20.629192
3.0022631 28.806747 19.073439
2.4806938 23.9237 9.8059454
2.1288798 20.565784 6.1672812
2.0607095 19.975266 3.9040232
3.231945 30.393091 27.303513
1.4056548 13.262898 9.7949266
3.4783187 32.873512 19.511087
4.1708555 39.616768 18.502583
2.2247009 21.166786 7.4966345
2.1009495 20.022934 4.9464922
2.1068575 20.079216 2.9081004
2.1219783 20.257338 0.91530693
0.022903645 0.057288162 5.5590615
0.1015416 0.81182003 5.2014627
0.12534583 1.040689 5.0629253
0.17328613 1.4989446 4.871026
0.055358596 0.31941286 5.4453278
0.077407531 0.56973118 5.3193207
0.1519596 1.2739795 4.9772491
0.29839441 2.5721819 7.0958776
0.67216915 5.8912568 12.324068
2.7351632 25.342737 20.635468
3.1117585 28.879242 19.128269
3.7569733 34.981781 18.503223
2.5656705 23.928722 9.8115644
2.2016759 20.567768 6.1701012
2.1304238 19.967951 3.9040232
2.1523781 20.1737 1.9143288
3.3380172 30.381624 27.303513
3.1724987 28.968216 21.302685
3.5930476 32.861172 19.511087
4.3105912 39.615498 18.508877
2.2985733 21.158892 7.4966345
2.1708298 20.015478 4.9464922
2.1796041 20.096357 2.9115541
2.1932147 20.254776 0.91550851
0.023103477 0.057207864 5.5590615
0.10437476 0.81146061 5.2014627
0.12897775 1.0402451 5.0629253
0.17851736 1.4983306 4.871026
0.056473218 0.31921768 5.4453278
0.079395793 0.56945747 5.3193207
0.1564057 1.2734413 4.9772491
0.3073712 2.5711248 7.0958776
0.69247502 5.886713 12.319568
2.8223157 25.32143 20.626053
3.2167091 28.905605 19.152943
3.8800361 34.977257 18.50786
2.650713 23.933447 9.8171835
2.2739844 20.564724 6.1715112
2.2001119 19.960394 3.9040232
2.2233298 20.171013 1.9147758
3.4465725 30.392046 27.323465
3.2740517 28.960983 21.305628
3.7111173 32.878418 19.528818
4.4549294 39.654335 18.534054
2.3729441 21.155434 7.4982786
2.2406836 20.007778 4.9464922
2.2475357 20.068941 2.9087913
2.2644587 20.251961 0.91571003
0.02330303 0.057126869 5.5590615
0.10720664 0.8110913 5.2014627
0.13273712 1.0407985 5.067821
0.18374643 1.4976982 4.871026
0.057534993 0.31873471 5.4403362
0.081383094 0.56917685 5.3193207
0.16084988 1.2728877 4.9772491
0.31655511 2.5717487 7.1005697
0.71275735 5.8820987 12.315066
2.9120207 25.323025 20.635468
3.5288894 30.734482 20.367411
4.0036173 34.976704 18.514816
2.7347665 23.928654 9.8190565
2.3462989 20.561428 6.1729217
2.2703285 19.957474 3.9049561
2.2914748 20.143337 1.9129876
3.5496039 30.35387 27.300186
3.3802733 28.993542 21.338003
3.82636 32.869537 19.531351
4.5891423 39.602474 18.517269
2.4386344 21.076656 7.4736257
2.3105102 19.999836 4.9464922
2.3175757 20.060974 2.9087913
2.33571 20.248898 0.91591156
0.023522248 0.057083983 5.5640616
0.11003724 0.81071216 5.2014627
0.13636938 1.0403289 5.067821
0.18897325 1.4970478 4.871026
0.058647234 0.3185319 5.4403362
0.083369397 0.56888932 5.3193207
0.16529211 1.2723185 4.9772491
0.32553026 2.5706279 7.1005697
0.73301595 5.8774142 12.310565
3.000397 25.312704 20.635468
3.6528614 30.863161 20.460623
4.1303568 35.00211 18.535686
2.818819 23.923567 9.8209295
2.4180574 20.553114 6.1729217
2.3399792 19.949427 3.9049561
2.3623543 20.140162 1.9134346
3.6555371 30.341295 27.300186
3.4824231 28.98959 21.343887
3.9426129 32.868824 19.53895
4.7311196 39.61776 18.531956
2.5121908 21.068014 7.4736257
2.3803084 19.991648 4.9464922
2.3870018 20.047842 2.9081004
2.4069674 20.245581 0.91611308
0.023721365 0.057001527 5.5640616
0.11297393 0.81109262 5.2064018
0.13999997 1.0398464 5.067821
0.19439 1.4978591 4.8757977
0.05975876 0.31832525 5.4403362
0.085354678 0.56859481 5.3193207
0.16973233 1.2717338 4.9772491
0.33450145 2.5694759 7.1005697
0.75325042 5.8726606 12.306064
3.0892081 25.305943 20.638607
3.7620897 30.862675 20.468847
4.2498393 34.965488 18.524092
2.6051617 21.465239 8.8244762
2.4897866 20.544548 6.1729217
2.4096014 19.941137 3.9049561
2.4332397 20.136738 1.9138818
3.7609661 30.324644 27.29686
3.5840905 28.98127 21.346832
4.0589075 32.867699 19.546551
4.8715982 39.619019 18.540348
2.5701785 20.93257 7.4292507
2.4494863 19.978392 4.9453197
2.4569674 20.039389 2.9081004
2.47823 20.242014 0.91631466
0.023940416 0.05695704 5.5690613
0.11580449 0.81069332 5.2064018
0.14376844 1.0403601 5.0727162
0.19981474 1.498651 4.8805699
0.06086956 0.31811473 5.4403362
0.087338924 0.56829345 5.3193207
0.17417046 1.2711334 4.9772491
0.34346855 2.5682926 7.1005697
0.77346081 5.867837 12.301562
4.099309 32.49538 32.266003
3.1775236 25.295004 20.638607
3.8713589 30.861801 20.47707
4.3724155 34.954838 18.526411
2.6651335 21.336409 8.7757769
2.545454 20.407206 6.1348505
2.4791944 19.932604 3.9049561
2.5041299 20.133062 1.9143288
3.859709 30.255777 27.246979
3.6862521 28.976601 21.352716
4.1752424 32.866158 19.55415
5.0110044 39.610783 18.544542
2.6349456 20.857883 7.4062419
2.5222507 19.993834 4.9511814
2.5269029 20.030689 2.9081004
2.5488727 20.233242 0.91631466
0.024139088 0.056873128 5.5690613
0.11863363 0.81028414 5.2064018
0.14739911 1.0398519 5.0727162
0.20524739 1.4994234 4.8853416
0.061979614 0.3179003 5.4403362
0.089322105 0.56798512 5.3193207
0.17860648 1.2705178 4.9772491
0.35243148 2.5670781 7.1005697
0.79364645 5.8629441 12.297061
4.2136316 32.487946 32.273014
3.2658002 25.283758 20.638607
3.9822724 30.87298 20.493519
4.4944038 34.939362 18.526411
2.6160622 20.393436 6.13344
2.5506268 19.938446 3.9077537
2.5750237 20.129137 1.9147758
3.9570456 30.179182 27.190445
3.7884252 28.971575 21.358604
4.2916155 32.864208 19.56175
5.1527534 39.620052 18.557133
2.7053044 20.829828 7.3996682
2.5813987 19.902962 4.931252
2.5961709 20.016836 2.9074099
2.620126 20.229176 0.91651613
0.024316972 0.056749996 5.5640616
0.12146132 0.80986512 5.2064018
0.15102798 1.0393311 5.0727162
0.21089555 1.5016541 4.8948855
0.063088916 0.31768203 5.4403362
0.091304205 0.56766987 5.3193207
0.18304032 1.2698866 4.9772491
0.36139008 2.5658321 7.1005697
0.81410724 5.8601379 12.297061
4.3260679 32.465969 32.266003
3.3545492 25.276062 20.641747
4.0894656 30.854748 20.490778
4.6169186 34.927856 18.52873
3.1525693 23.881878 9.8209295
2.6772013 20.308088 6.1108799
2.6208498 19.934292 3.9086862
2.6459215 20.124966 1.915223
4.0638614 30.176287 27.20042
3.8911464 28.970192 21.367434
4.4080262 32.861843 19.569349
2.7573876 20.665792 7.3454323
2.6508574 19.893829 4.931252
2.669297 20.032194 2.9108632
2.6913822 20.224857 0.91671765
0.024514919 0.056664765 5.5640616
0.12428754 0.8094362 5.2064018
0.15465501 1.0387976 5.0727162
0.21656187 1.5038637 4.9044299
0.064197451 0.31745988 5.4403362
0.093285188 0.56734771 5.3193207
0.18747196 1.2692399 4.9772491
0.37034431 2.5645552 7.1005697
0.83425081 5.8551054 12.29256
4.446136 32.500137 32.315067
3.4438097 25.271912 20.648022
4.1988358 30.852715 20.499002
4.7400031 34.920303 18.533367
3.2371585 23.879913 9.8246756
2.742281 20.255835 6.0981894
2.6779284 19.832529 3.8909667
2.7168205 20.120541 1.9156699
4.1655927 30.136028 27.177141
3.9939034 28.968443 21.376263
4.5244727 32.859066 19.576948
2.8942358 21.128569 7.511426
2.7044718 19.768877 4.9031162
2.7331653 19.9786 2.9046471
2.7633162 20.225241 0.9171207
0.024712566 0.056578849 5.5640616
0.12711225 0.80899739 5.2064018
0.15828013 1.0382514 5.0727162
0.22159193 1.5016218 4.8996577
0.065364279 0.31751639 5.4453278
0.095265031 0.56701857 5.3193207
0.19208944 1.2698205 4.9820886
0.37929401 2.5632467 7.1005697
0.85468388 5.8521576 12.29256
4.5610437 32.495018 32.325584
3.5330822 25.267448 20.654301
4.3088193 30.854437 20.50997
4.8630915 34.912323 18.538006
2.8030684 20.17487 6.0770392
2.7471404 19.823059 3.8909667
2.7884049 20.1208 1.9165641
4.2744312 30.147181 27.20042
4.0961304 28.962332 21.382151
4.6403503 32.851608 19.582016
5.5199318 39.226856 18.399778
2.9916296 21.28668 7.5705924
2.7660298 19.706369 4.8902206
2.7966921 19.924801 2.8984311
2.8338985 20.215471 0.9171207
0.02488902 0.05645394 5.5590615
0.1299354 0.80854875 5.2064018
0.1620605 1.0386984 5.077611
0.22906436 1.5155985 4.9473777
0.066472225 0.31728631 5.4453278
0.097243719 0.56668258 5.3193207
0.1967133 1.2703844 4.986928
0.38798049 2.5602012 7.0958776
0.87478435 5.8469858 12.288059
4.6734276 32.471836 32.318573
3.6229179 25.26652 20.663715
4.4182739 30.851625 20.518192
4.9855542 34.899513 18.540323
3.3893864 23.755768 9.7834692
2.8646767 20.103222 6.0587087
2.8066411 19.745262 3.8779099
2.8509138 20.056709 1.9116462
4.3801751 30.135773 27.203747
4.1983628 28.955856 21.388037
4.7568498 32.848015 19.589615
3.076019 21.346216 7.5952454
2.8285692 19.653294 4.8796701
2.8634033 19.895309 2.8956683
2.9044466 20.205456 0.9171207
0.02508593 0.056366716 5.5590615
0.13275696 0.80809027 5.2064018
0.16568525 1.0381263 5.077611
0.23686534 1.531016 4.9998693
0.067640409 0.3173345 5.4503193
0.099313587 0.56686467 5.3242917
0.2013434 1.2709315 4.9917674
0.3969149 2.5588312 7.0958776
0.89518881 5.8438969 12.288059
4.7836251 32.434155 32.297546
3.7110925 25.253719 20.663715
4.525939 30.836014 20.518192
5.1105547 34.903816 18.551918
2.87059 19.701319 3.8713818
2.9144449 20.002285 1.9076226
4.4875417 30.135071 27.217049
4.2994113 28.941027 21.388037
4.8740125 32.848267 19.599749
3.1512022 21.340021 7.5968885
2.8971548 19.643301 4.8796701
2.9256084 19.836205 2.8887615
2.9654942 20.130941 0.91450089
0.025303693 0.056316964 5.5640616
0.13557692 0.80762196 5.2064018
0.16947217 1.0385467 5.0825062
0.24571082 1.5522949 5.0714488
1.7155041 11.005949 26.301043
0.068747699 0.31709644 5.4503193
0.10129172 0.56651455 5.3242917
0.20597975 1.2714616 4.9966068
0.40638551 2.5608387 7.1052628
0.91490805 5.8364348 12.279057
4.8946819 32.403156 32.283527
3.7998006 25.244457 20.666851
4.637279 30.844837 20.534641
5.2389312 34.929569 18.575106
3.0709715 20.523949 6.1898417
2.9270139 19.608585 3.8555269
2.976896 19.942736 1.9031519
4.5943937 30.130297 27.227024
4.9905872 32.843838 19.607347
5.6477518 37.300152 17.526987
3.2270858 21.338228 7.6001759
2.9881749 19.781801 2.8825455
3.0350006 20.115526 0.91429931
0.025500121 0.056228291 5.5640616
0.13852681 0.80790955 5.2113414
0.17326406 1.0389531 5.0874019
0.2513665 1.5529013 5.076221
1.7591414 11.032692 26.379288
0.069854155 0.31685457 5.4503193
0.1032686 0.56615758 5.3242917
0.21082774 1.2732149 5.0062857
0.4114511 2.5355573 7.0395637
0.93493074 5.8310566 12.274555
5.0039454 32.361206 32.258995
3.8861194 25.219501 20.657436
4.1304536 26.836212 17.886385
5.3648605 34.937344 18.589018
3.1425948 20.513103 6.1898417
2.9895055 19.559401 3.8480661
3.0389671 19.882996 1.898681
4.7006922 30.121456 27.233677
3.7905719 24.345295 18.024004
5.1078529 32.843254 19.617479
5.7820902 37.307121 17.539577
3.302273 21.331503 7.6018195
3.0750711 19.886791 4.9441471
3.0526674 19.741888 2.8784013
3.0945222 20.035686 0.91147786
0.025696239 0.05613894 5.5640616
0.14134608 0.80742109 5.2113414
0.17706083 1.0393456 5.0922971
0.25702941 1.5534871 5.0809932
1.7982706 11.03034 26.388491
0.070959762 0.31660879 5.4503193
0.10524423 0.56579363 5.3242917
0.21548064 1.2737106 5.0111251
0.42029935 2.5341055 7.0395637
0.95457488 5.8234606 12.265553
5.1107464 32.30479 32.220444
3.974128 25.205782 20.657436
4.8603086 30.861279 20.567539
5.4970961 34.984043 18.6238
3.2126939 20.492531 6.1870217
3.0714266 19.636206 3.8648534
3.1014268 19.827986 1.8946574
4.8058071 30.104864 27.233677
3.8812518 24.36784 18.050491
5.2258525 32.846512 19.630144
5.9151235 37.304638 17.547968
3.378191 21.329172 7.6051068
3.1444705 19.875937 4.9441471
3.1076319 19.643068 2.8659689
3.1558628 19.97048 0.90926105
0.025870487 0.056010969 5.5590615
0.14416365 0.80692279 5.2113414
0.18086246 1.0397243 5.0971918
0.26245052 1.5525805 5.0809932
1.8374048 11.02785 26.397696
0.072064497 0.31635916 5.4503193
0.10721858 0.56542277 5.3242917
0.22013959 1.2741894 5.0159645
1.6599565 9.7942209 27.068291
0.97453701 5.817946 12.261051
5.2354403 32.360683 32.294041
4.0695238 25.237867 20.695099
4.9633498 30.815228 20.548349
5.6191792 34.964642 18.6238
3.2842064 20.481192 6.1870217
3.1611793 19.75803 1.8892924
4.9084573 30.073164 27.220375
3.9682369 24.366114 18.05932
5.343245 32.845085 19.640278
6.0256925 37.162804 17.491322
3.4533784 21.321913 7.60675
3.2231464 19.922417 4.9582152
3.1761801 19.632101 2.8659689
3.2199745 19.92482 0.90785033
0.026065843 0.055920321 5.5590615
0.14697947 0.80641466 5.2113414
0.18466887 1.0400891 5.102087
0.26786846 1.5516548 5.0809932
1.8765438 11.025221 26.4069
0.073102385 0.31582463 5.4453278
0.10919162 0.56504506 5.3242917
0.22480446 1.2746509 5.0208039
1.6897197 9.7628603 26.997898
0.99447238 5.8123631 12.25655
5.3518596 32.363323 32.315067
4.1658249 25.273436 20.735899
5.0769987 30.834845 20.573021
5.7390404 34.931702 18.616844
6.2510982 38.089947 15.683522
3.3572311 20.479071 6.1898417
3.2845647 20.079678 3.9543848
3.2285206 19.737045 1.8883982
5.009716 30.033747 27.20042
4.0638847 24.415905 18.106411
5.4599848 32.838993 19.647877
3.5285556 21.314386 7.6083932
3.2926691 19.911045 4.9582152
3.2721598 19.787008 2.889452
3.2732208 19.814877 0.90381968
0.026260883 0.055828992 5.5590615
0.14979348 0.8058967 5.2113414
0.18829833 1.0394381 5.102087
0.2730239 1.5492404 5.076221
1.914683 11.016679 26.4023
0.074204378 0.31556752 5.4453278
0.11116333 0.56466049 5.3242917
0.22925246 1.2738584 5.0208039
1.7237881 9.7569027 26.997898
1.0143807 5.8067122 12.252049
5.473114 32.393677 32.364132
4.2527275 25.251064 20.729622
5.1825204 30.804565 20.564796
5.8609405 34.911457 18.616844
6.3878536 38.090755 15.692887
3.4302812 20.476688 6.1926618
3.3538258 20.063242 3.9534521
5.1113873 29.997677 27.183794
4.1606059 24.469315 18.156446
5.5767469 32.832485 19.655478
6.0387478 35.665512 16.809454
3.6037228 21.306595 7.6100373
3.3662007 19.923395 4.964077
3.3412094 19.775465 2.889452
3.3573334 19.892 0.90744722
0.026455602 0.055736985 5.5590615
0.15260568 0.8053689 5.2113414
0.1919255 1.0387746 5.102087
0.2784301 1.5482779 5.076221
1.9531268 11.009929 26.4023
0.075305462 0.31530657 5.4453278
0.11323886 0.56479156 5.3292637
0.23392479 1.2742867 5.0256433
1.7593665 9.7593184 27.021362
1.0346437 5.8031359 12.252049
5.587369 32.381405 32.37114
4.342164 25.243736 20.735899
5.2949739 30.815134 20.583988
5.9797735 34.873322 18.607569
3.5025465 20.469318 6.1940718
3.4263196 20.065941 3.9562502
3.5179482 20.602539 1.9693195
5.2282281 30.049543 27.246979
4.2625895 24.55022 18.227081
5.6935296 32.825562 19.663076
6.1632071 35.644215 16.809454
3.6788785 21.298538 7.6116805
3.438205 19.925892 4.9675937
3.4043241 19.729523 2.8846173
0.026672088 0.055681925 5.5640616
0.15541601 0.80483127 5.2113414
0.19555034 1.0380983 5.102087
0.28383291 1.5472964 5.076221
1.9915468 11.003043 26.4023
0.07647454 0.31532213 5.4503193
0.11520966 0.56439286 5.3292637
0.23860291 1.2746979 5.0304828
1.7937343 9.7548151 27.026056
1.0545045 5.7973471 12.247548
5.7053165 32.389801 32.399178
4.4262156 25.205425 20.717068
5.4046736 30.808819 20.592211
6.1075792 34.887146 18.62612
3.5756276 20.466419 6.1968918
3.4946547 20.04418 3.9543848
3.5958307 20.624475 1.9724491
5.343534 30.089928 27.300186
4.3729472 24.67449 18.330091
5.8103318 32.818222 19.670677
6.2962685 35.671646 16.832533
3.7540221 21.29022 7.6133242
3.510268 19.928129 4.9711103
3.4748907 19.727274 2.8859987
3.5749121 20.315828 0.92578655
0.026866289 0.055588484 5.5640616
0.15822445 0.80428386 5.2113414
0.19917278 1.0374094 5.102087
0.28923222 1.5462962 5.076221
2.030297 10.997946 26.4069
0.077574752 0.31505328 5.4503193
0.11707024 0.56346548 5.3242917
0.24328671 1.275092 5.0353222
1.8284101 9.7518864 27.035442
1.0747346 5.7936311 12.247548
4.511425 25.174496 20.704514
5.5143943 30.802113 20.600435
6.2300997 34.869972 18.628439
3.6478894 20.458536 6.1983023
3.5671821 20.046368 3.9571826
3.6171987 20.327429 1.9465185
5.4518638 30.089466 27.316814
4.7561002 26.301783 19.545616
5.9271526 32.810463 19.678276
6.4231606 35.662849 16.838827
3.8299885 21.286282 7.6166115
3.5832486 19.934891 4.9758
3.647572 20.313061 0.9261896
0.027082514 0.055531841 5.5690613
0.16118388 0.80448854 5.2162805
0.20279279 1.0367079 5.102087
0.29490775 1.5467435 5.0809932
2.0686746 10.990791 26.4069
0.078674018 0.31478056 5.4503193
0.11903638 0.56305337 5.3242917
0.24821624 1.2767026 5.045001
1.8627634 9.747139 27.040134
1.0945469 5.7877049 12.243047
4.6055732 25.193056 20.732761
5.6241345 30.795019 20.608662
6.3517809 34.848011 18.628439
3.7209973 20.455116 6.2011218
3.6380129 20.038628 3.9581153
3.6142976 19.907986 1.9094108
5.5568619 30.070251 27.316814
4.9923072 27.068087 20.12542
6.0447707 32.806534 19.688408
3.9051204 21.277426 7.6182547
3.6554422 19.936605 4.9793167
3.7411325 20.40394 2.9854567
3.7211559 20.314949 0.92679417
0.027276192 0.055436969 5.5690613
0.16414666 0.80468231 5.22122
0.20660953 1.0369922 5.1069827
0.3003051 1.5457047 5.0809932
2.1073952 10.985423 26.411505
0.079772331 0.31450403 5.4503193
0.12100109 0.56263447 5.3242917
0.25316 1.2782944 5.0546799
1.8971058 9.7422714 27.044827
1.1147431 5.7838492 12.243047
4.6934853 25.176826 20.732761
5.7338915 30.787533 20.616886
6.4822893 34.873535 18.653944
3.7941263 20.451435 6.2039418
3.708833 20.030636 3.9590478
5.6652498 30.069014 27.333441
5.1315823 27.288839 20.30201
6.1616378 32.797939 19.696009
3.981106 21.272949 7.6215415
3.7285848 19.942833 4.9840059
3.8114223 20.385887 2.984766
3.7920458 20.301834 0.92679417
0.027446928 0.055304099 5.5640616
0.16711275 0.80486506 5.2261591
0.21022804 1.0362647 5.1069827
0.30569878 1.544647 5.0809932
2.1457286 10.977999 26.411505
0.080869667 0.31422365 5.4503193
0.12307859 0.5627293 5.3292637
0.25811785 1.2798672 5.0643587
1.9314368 9.7372828 27.049519
1.1345063 5.7777863 12.238545
4.7638998 25.068514 20.657436
5.842885 30.775545 20.622368
6.6081047 34.872456 18.665539
3.867275 20.447495 6.2067618
3.7805526 20.027222 3.9609132
4.0959072 21.697773 2.0752771
4.5802145 23.852203 21.713348
5.5296292 28.850721 21.473389
6.2793298 32.793171 19.706141
7.1078062 37.225258 17.606714
4.0571079 21.268198 7.6248288
3.8018155 19.948797 4.9886956
3.8677261 20.294626 2.9737151
3.8656926 20.303198 0.92739886
0.027639808 0.055207953 5.5640616
0.17008212 0.80503702 5.2310982
0.21405016 1.0365218 5.1118779
0.31108874 1.5435705 5.0809932
2.1840358 10.970442 26.411505
0.08189223 0.31366035 5.4453278
0.12504213 0.56229621 5.3292637
0.26308978 1.2814209 5.0740376
1.9657561 9.732172 27.054211
1.1546676 5.7737913 12.238545
4.682652 24.180473 19.94187
5.9518647 30.763172 20.627851
6.735672 34.879623 18.68177
3.9404426 20.443293 6.2095823
3.8513658 20.018726 3.9618456
4.1744447 21.698017 2.0766184
4.6562772 23.799423 21.68009
5.6488967 28.926453 21.544024
6.3962379 32.783745 19.713739
7.2385697 37.204674 17.608812
4.1331253 21.26318 7.6281157
3.8751333 19.954491 4.9933848
3.936656 20.27128 2.9723337
3.9384437 20.299389 0.92780191
0.02783235 0.055111136 5.5640616
0.17289118 0.80443841 5.2310982
0.2180862 1.037761 5.1216683
0.31647494 1.5424752 5.0809932
2.2227049 10.964667 26.416105
0.082911842 0.31309378 5.4403362
0.12712207 0.5623762 5.3342352
0.26781842 1.281725 5.0788774
2.0000634 9.7269421 27.058905
1.1748149 5.7697253 12.238545
6.0616374 30.754517 20.636076
6.8608036 34.873287 18.691046
4.0127029 20.434118 6.2109919
3.9231102 20.014803 3.9637108
4.2539907 21.70286 2.0784068
4.7451615 23.812319 21.706696
5.7545657 28.930342 21.561682
6.5139961 32.77813 19.723873
7.3807464 37.241505 17.638184
4.2091565 21.257887 7.631403
3.9475937 19.955147 4.9969015
3.9997041 20.218552 2.9668083
4.0112147 20.295319 0.92820489
0.028024554 0.055013649 5.5640616
0.17586434 0.80458903 5.2360377
0.22192042 1.037989 5.1265635
0.32216251 1.5428224 5.0857654
2.2613597 10.958755 26.420708
0.084004246 0.31280243 5.4403362
0.12920409 0.5624485 5.3392067
0.2725524 1.2820119 5.0837164
2.034358 9.72159 27.063597
1.1949478 5.7655897 12.238545
6.173068 30.753666 20.649782
6.9859734 34.866501 18.700319
4.0830665 20.415285 6.2095823
3.9939129 20.005804 3.9646437
4.3306966 21.692762 2.0788538
4.8379054 23.84318 21.749926
5.8587255 28.925924 21.573454
6.6317935 32.772091 19.734005
7.5133924 37.228863 17.64448
4.2852011 21.252321 7.6346893
4.0220251 19.965069 5.0027633
4.0849252 20.277285 2.9771686
4.0840058 20.290991 0.92860794
0.028193289 0.054878492 5.5590615
0.17867181 0.80397022 5.2360377
0.22597544 1.0391979 5.136354
0.32754597 1.5416883 5.0857654
2.2995992 10.950794 26.420708
0.085095614 0.3125073 5.4403362
0.13116661 0.56199402 5.3392067
0.27729163 1.2822812 5.0885558
2.0689991 9.7178049 27.072983
1.2146169 5.759253 12.234044
4.703949 22.997545 19.009748
6.2854047 30.756516 20.666233
7.1102934 34.854919 18.707277
4.156219 20.410309 6.2124023
4.0647006 19.996553 3.9655762
4.4113526 21.701914 2.0810893
4.9286571 23.862715 21.783182
5.9539471 28.877588 21.552853
6.7504978 32.769859 19.746672
7.6451259 37.2113 17.648674
4.361259 21.246485 7.6379766
4.091692 19.950907 5.0027633
4.1656303 20.311415 2.9840755
4.1558127 20.281506 0.92880952
0.028384678 0.054779746 5.5590615
0.1814771 0.80334163 5.2360377
0.22982156 1.0393969 5.1412492
0.3329255 1.5405356 5.0857654
2.3382189 10.944611 26.425312
0.086263627 0.31248638 5.4453278
0.13312754 0.5615328 5.3392067
0.28176594 1.2813054 5.0885558
2.1032732 9.7122107 27.077677
1.2347131 5.7549782 12.234044
4.7881632 23.000036 19.02544
7.2355189 34.847237 18.716551
4.2206235 20.362797 6.2025323
4.136467 19.991865 3.9674416
4.4860702 21.681507 2.0806422
5.0157633 23.863634 21.799809
6.0497322 28.832893 21.535194
6.8710361 32.775627 19.764404
7.7777572 37.197712 17.654968
4.4363623 21.235754 7.6396203
4.1603155 19.931747 5.0015912
4.2395401 20.311293 2.9861474
4.2296429 20.281548 0.92941409
0.028575722 0.054680333 5.5590615
0.18428017 0.80270332 5.2360377
0.23389536 1.0405751 5.1510396
0.33862147 1.5408219 5.0905371
2.3768232 10.938291 26.429913
0.087432534 0.31246114 5.4503193
0.13508683 0.56106466 5.3392067
0.28623679 1.2803141 5.0885558
2.1375334 9.7064953 27.082369
1.25433 5.7485061 12.229543
4.8579335 22.933681 18.98464
5.571835 26.326532 17.727381
7.3607779 34.839108 18.725826
5.2330475 24.789801 10.324776
4.291677 20.34794 6.2025323
4.2072387 19.982113 3.9683743
4.5617256 21.665716 2.0806422
5.0990324 23.84598 21.799809
6.1494975 28.807648 21.532249
6.990798 32.776737 19.779604
7.9094439 37.179218 17.659166
4.5124254 21.229378 7.6429076
4.2288547 19.912348 5.0004187
4.3001266 20.247931 2.9792407
4.3024874 20.276434 0.9298172
0.02876642 0.054580249 5.5590615
0.18725778 0.80281174 5.2409768
0.2377532 1.040745 5.1559353
0.34464914 1.5425441 5.100081
2.4154122 10.931835 26.434517
0.088522695 0.31215402 5.4503193
0.1370445 0.56058967 5.3392067
0.2909829 1.2805328 5.0933952
2.1721563 9.702342 27.091755
1.2739168 5.7419672 12.225041
4.9371376 22.912781 18.981503
5.625854 26.131149 17.609497
7.4860678 34.830524 18.735102
5.2660136 24.522091 10.221759
4.3948827 20.482925 6.247653
4.2790213 19.97691 3.9702392
4.6373253 21.64966 2.0806422
5.1838264 23.835335 21.806461
5.8820968 27.091469 20.269634
7.1143069 32.794266 19.804935
8.0478144 37.191303 17.678047
4.5884981 21.222729 7.6461945
4.2942309 19.878462 4.995729
4.3456831 20.116627 2.9626644
4.3753467 20.271059 0.93022025
0.028980406 0.054516174 5.5640616
0.19005898 0.80215323 5.2409768
0.24161506 1.0409005 5.16083
0.35036221 1.5427873 5.1048532
2.4539847 10.925243 26.439117
0.089611776 0.31184313 5.4503193
0.13900049 0.56010789 5.3392067
0.29545105 1.2795094 5.0933952
2.2063937 9.6963835 27.096447
1.2934734 5.7353621 12.22054
5.0070896 22.849781 18.94384
5.6991482 26.029657 17.554668
7.6113873 34.821491 18.744377
5.3001428 24.268044 10.124361
4.4673772 20.472145 6.249063
4.3497734 19.966652 3.9711721
4.6248856 21.229477 2.0435345
5.4379153 24.589977 22.511465
5.9661717 27.023409 20.234318
7.2333798 32.790279 19.817602
8.1853895 37.198444 17.694832
4.6645789 21.215803 7.6494808
4.3656793 19.872845 4.9980741
4.3861256 19.965906 2.9433253
4.4482217 20.265423 0.93062335
0.029170528 0.054414678 5.5640616
0.1926758 0.80072957 5.2360377
0.24548088 1.0410417 5.1657252
0.35641694 1.5444635 5.114397
2.4925408 10.918516 26.443722
0.090781331 0.31180537 5.4553113
0.14095478 0.55961925 5.3392067
0.30020279 1.279694 5.0982351
2.2406156 9.6903038 27.101141
1.3129992 5.7286906 12.21604
5.0284162 22.570021 18.727287
5.8063283 26.083071 17.604013
7.7367349 34.812012 18.753653
5.2451301 23.620327 9.8640099
4.420506 19.956142 3.9721045
5.5605702 24.734777 22.661114
5.9896498 26.686907 19.998863
7.342135 32.73959 19.802401
8.3231134 37.205082 17.711617
4.7416978 21.213219 7.6544118
4.4456172 19.904922 5.0097971
4.4557929 19.950474 2.9433253
4.5221987 20.264399 0.93122792
0.029360292 0.054312523 5.5640616
0.19528502 0.79929733 5.2310982
0.24958801 1.0421588 5.1755161
0.36214682 1.5446634 5.1191688
2.53108 10.911653 26.448324
0.091869175 0.31148657 5.4553113
0.14290735 0.55912387 5.3392067
0.30466792 1.2786382 5.0982351
2.2744274 9.6824236 27.101141
1.3324944 5.7219524 12.211538
4.8698974 21.504585 17.861073
5.8871889 26.017784 17.573858
7.8621078 34.802071 18.762928
5.3275485 23.601873 9.8640099
4.64713 20.604242 6.2984142
4.4912181 19.945383 3.9730372
4.8758149 21.653353 2.0855601
5.6643419 24.791655 22.730949
6.5628018 28.77021 21.570513
7.4544578 32.70536 19.797335
8.4589701 37.202351 17.724205
4.8178096 21.20575 7.6576991
4.522603 19.922462 5.0180035
4.5951176 20.258236 0.93163097
0.029549699 0.054209709 5.5640616
0.19826122 0.79936486 5.2360377
0.25346509 1.0422705 5.1804109
0.36788243 1.5448419 5.1239409
2.5696015 10.904653 26.452927
0.092955902 0.31116399 5.4553113
0.14499238 0.55913746 5.3441777
0.30912936 1.2775669 5.0982351
2.3086121 9.6761045 27.105831
1.3519584 5.7151475 12.207037
5.0125508 21.438656 23.946089
4.967628 21.586075 17.942673
5.9433007 25.846298 17.472424
7.9875069 34.791687 18.772202
5.4140477 23.601206 9.871501
4.7286696 20.629978 6.3111048
4.560813 19.929585 3.9730372
4.9213748 21.505131 2.073489
5.2079234 22.433111 20.592653
7.5685749 32.679138 19.797335
8.5959311 37.203552 17.738892
4.8939261 21.198002 7.6609855
4.6019516 19.949183 5.0285544
4.6294708 20.068464 2.9647362
4.6691699 20.256676 0.93223554
0.029738747 0.054106232 5.5640616
0.20237993 0.80394197 5.2706122
0.25734603 1.0423679 5.1853061
0.37362373 1.5449992 5.1287131
2.6081049 10.897516 26.457529
0.093957052 0.31056157 5.4503193
0.14694324 0.55862796 5.3441777
0.31388706 1.2777007 5.1030741
2.3427804 9.6696644 27.110525
1.3713913 5.7082767 12.202536
5.0646377 21.325375 23.839508
3.6481211 15.602999 13.002741
6.0458517 25.878328 17.508062
8.1119232 34.776539 18.77916
5.4974504 23.586678 9.8733749
4.800653 20.613346 6.3111048
4.6303525 19.913542 3.9730372
5.2964826 22.458405 20.632559
5.9519424 25.277153 18.992304
7.6885242 32.677696 19.812534
8.7267799 37.177738 17.74099
4.970048 21.189987 7.6642728
4.6737771 19.942459 5.030899
4.7232242 20.153433 2.9792407
4.7421288 20.249983 0.93263859
0.029927431 0.054002091 5.5640616
0.20614786 0.80699438 5.2953086
0.26123071 1.0424509 5.1902013
0.37901449 1.5436857 5.1287131
2.6470511 10.892142 26.466734
0.095040537 0.31023169 5.4503193
0.1490301 0.55862653 5.3491497
0.31834513 1.2765973 5.1030741
2.3765197 9.6614275 27.110525
1.3907925 5.7013397 12.198034
3.706161 15.605317 13.015295
6.1660767 25.983187 17.593048
8.2373514 34.765247 18.788433
5.5840225 23.58539 9.880867
4.8538032 20.517103 6.2871337
4.6998358 19.897259 3.9730372
7.1925802 30.0287 27.582853
6.2432137 26.105349 19.628025
7.8075533 32.671623 19.825201
8.8701849 37.204445 17.768265
5.0461731 21.181694 7.6675596
4.7467375 19.94021 5.0344157
4.8210664 20.252441 2.9958169
4.8150978 20.243029 0.93304169
0.030091347 0.05386113 5.5590615
0.20935394 0.80777413 5.3051872
0.26486793 1.0415326 5.1902013
0.38403952 1.5409048 5.1239409
2.6855235 10.884732 26.471336
0.096036494 0.30962259 5.4453278
0.15097918 0.55810291 5.3491497
0.32249078 1.2742598 5.0982351
2.4106479 9.654747 27.115217
1.4096386 5.692224 12.189032
5.1904545 21.471371 21.787411
6.3106198 26.185083 17.743828
8.3627996 34.753513 18.797709
5.6684847 23.57477 9.884613
4.8828068 20.322792 6.2335529
4.7692614 19.880732 3.9730372
7.3061795 30.039688 27.616108
6.1339865 25.258553 19.009962
7.9256177 32.660931 19.835333
9.0096111 37.212952 17.787148
5.1223016 21.173132 7.6708469
4.8197393 19.937693 5.0379329
4.8940587 20.245117 2.9971983
4.8892484 20.240664 0.93364626
0.030279173 0.05375576 5.5590615
0.21256799 0.80854118 5.3150659
0.26824737 1.039616 5.1853061
0.38904977 1.5381078 5.1191688
2.7244511 10.879082 26.480541
0.097116686 0.30928546 5.4453278
0.15306778 0.55808657 5.3541212
0.32693684 1.2731262 5.0982351
2.4447584 9.6479473 27.119911
1.4284382 5.6830459 12.180029
5.256021 21.415024 21.748861
3.9094481 15.964685 13.335418
6.4665861 26.426899 17.922024
8.4882669 34.741322 18.806984
5.7551389 23.572853 9.8921051
4.9537168 20.305624 6.2335529
4.8386292 19.863962 3.9730372
5.0691137 20.810156 2.0158157
5.8025737 23.500055 21.640186
6.2047019 25.166346 18.956985
8.0437021 32.649807 19.845467
9.1448698 37.203312 17.797636
5.1995573 21.16888 7.675777
4.8927813 19.93491 5.04145
4.9623365 20.21829 2.9958169
4.9622521 20.233179 0.93404931
0.030466633 0.053649742 5.5590615
0.21498813 0.80629283 5.3051872
0.27161661 1.0376883 5.1804109
0.39404517 1.5352945 5.114397
2.7628911 10.8714 26.485146
0.09810742 0.30866975 5.4403362
0.15501493 0.55754882 5.3541212
0.33137891 1.2719773 5.0982351
2.4788508 9.6410255 27.124603
1.447191 5.6738067 12.171027
5.3022909 21.282352 21.633211
3.9726634 15.981161 13.360526
6.6142364 26.627363 18.072805
8.6137514 34.728676 18.816259
5.840735 23.566122 9.8977242
5.0245662 20.288208 6.2335529
4.9067583 19.842182 3.9721045
5.21943 21.106567 2.0448759
5.8800306 23.461548 21.623558
6.0108862 24.019182 18.112299
8.1628513 32.642441 19.858131
9.2933569 37.246025 17.833303
5.2757034 21.159765 7.6790643
4.9670372 19.936573 5.0461388
5.0041494 20.085524 2.9792407
5.0364704 20.23028 0.93465394
0.030653721 0.053543068 5.5590615
0.21800436 0.80628741 5.3101263
0.27497572 1.0357498 5.1755161
0.39902574 1.5324653 5.1096253
2.8013103 10.863582 26.489746
0.099184282 0.30832541 5.4403362
0.15710516 0.55751729 5.3590927
0.33549562 1.2695976 5.0933952
2.5129251 9.6339836 27.129297
1.4653512 5.6623979 12.157523
5.3302145 21.080471 21.44747
5.3909903 21.367861 17.851658
6.72963 26.69331 18.133116
8.7392502 34.71558 18.825535
5.9274836 23.563572 9.9052162
5.1012015 20.293806 6.240603
4.9747949 19.820169 3.9711721
5.124557 20.41683 1.9827318
5.9674125 23.462589 21.643509
6.1046419 24.037231 18.141729
8.2809858 32.630459 19.868263
9.4188557 37.195759 17.824911
5.3530083 21.154955 7.6839952
5.0401735 19.933252 5.0496559
5.0511656 19.976713 2.9661176
5.1107273 20.227104 0.93525851
0.03084043 0.053435739 5.5590615
0.22061183 0.80477232 5.3051872
0.27832457 1.0338005 5.1706204
0.40360999 1.5281768 5.100081
2.8397088 10.855627 26.49435
0.10025993 0.30797732 5.4403362
0.15919706 0.55747795 5.3640637
0.33992529 1.2684188 5.0933952
2.5469797 9.6268206 27.133989
1.4840022 5.6530371 12.14852
5.3567929 20.878653 21.261728
5.4240351 21.186771 17.716703
7.83113 30.611252 20.800564
8.865859 34.706329 18.83713
6.0131402 23.556215 9.9108353
5.160152 20.229393 6.2265024
5.042737 19.797922 3.9702392
6.0707345 23.524773 21.719997
6.2460017 24.238882 18.30949
8.4002123 32.622231 19.88093
9.5554132 37.18903 17.8375
5.4303436 21.149862 7.6889253
5.1181788 19.948494 5.0578623
5.1245594 19.973352 2.9681897
5.1850243 20.223661 0.93586308
0.031026771 0.053327758 5.5590615
0.22362795 0.80474585 5.3101263
0.28193155 1.0328226 5.1706204
0.40855548 1.5253167 5.0953088
2.8785863 10.849424 26.503553
0.10133436 0.30762547 5.4403362
0.16114204 0.55691886 5.3640637
0.34435081 1.2672246 5.0933952
2.5810153 9.6195383 27.138681
1.5026058 5.6436157 12.139519
5.4251485 20.842571 21.244205
5.4823012 21.107431 17.666489
7.9421372 30.59992 20.811529
8.9913979 34.692318 18.846403
6.101141 23.55752 9.9202003
5.2715988 20.369154 6.2744436
5.1105847 19.775444 3.9693067
5.2171259 20.187693 1.9648488
6.1509233 23.496212 21.713348
6.3796425 24.40464 18.450762
8.5183916 32.609394 19.891064
9.6886034 37.168625 17.843794
5.5077081 21.144485 7.6938558
5.1865559 19.925802 5.0566897
5.1954947 19.960133 2.9688804
5.2593598 20.219942 0.93646777
0.031212728 0.053219132 5.5590615
0.22643568 0.80396032 5.3101263
0.28580678 1.0328134 5.1755161
0.41387734 1.5238813 5.0953088
2.9169481 10.841197 26.508158
0.10249968 0.30754346 5.4453278
0.1632354 0.55686438 5.3690352
0.34843811 1.2648029 5.0885558
2.614578 9.6104698 27.138681
1.5217289 5.6362343 12.135017
5.4159355 20.513178 20.928797
4.1012015 15.566567 13.062373
8.0552902 30.59627 20.827978
9.1169472 34.677856 18.855679
6.1856914 23.545046 9.9239464
5.3061256 20.211435 6.2321424
5.1783376 19.752733 3.9683743
5.2938766 20.193445 1.9670842
6.4606481 24.366592 18.43899
8.6376886 32.600292 19.903728
9.8240881 37.156517 17.854284
5.5863075 21.143394 7.7004299
5.2511158 19.888779 5.052001
5.2461748 19.870054 2.9585202
5.3337317 20.215954 0.93707234
0.031423587 0.053145416 5.5640616
0.22924063 0.80316502 5.3101263
0.28941023 1.0318096 5.1755161
0.41879776 1.5209881 5.0905371
2.9558015 10.834718 26.517363
0.10357258 0.30718377 5.4453278
0.16517821 0.55629116 5.3690352
0.352851 1.2635789 5.0885558
2.6485679 9.6029491 27.143375
1.5402441 5.6266885 12.126015
5.5013433 20.545822 20.981365
4.1635518 15.582239 13.08748
8.1695929 30.596245 20.847168
9.2436466 34.667225 18.867273
6.2761965 23.554668 9.9370575
5.3840508 20.220606 6.240603
5.2459936 19.729788 3.9674416
5.3758502 20.218157 1.9711078
8.1000643 30.082962 27.828941
6.6149344 24.601515 18.633238
8.7559071 32.586594 19.913862
9.961956 37.152683 17.868971
5.6637435 21.137449 7.7053604
5.3142223 19.846849 5.0461388
5.3155022 19.85162 2.9585202
5.4081402 20.211691 0.93767691
0.031608909 0.053035401 5.5640616
0.23204282 0.80235994 5.3101263
0.29301015 1.0307931 5.1755161
0.42450586 1.5209548 5.0953088
2.9951665 10.829984 26.53117
0.10464422 0.30682036 5.4453278
0.16711903 0.55571121 5.3690352
0.35725954 1.2623396 5.0885558
2.6825366 9.5953064 27.148067
1.5592935 5.6191802 12.121513
8.8042927 32.427738 33.100086
4.1690598 15.387282 12.936834
6.7770181 25.030006 17.085876
9.3703814 34.656124 18.878866
6.3607974 23.541567 9.9408035
5.3161106 19.716101 3.9683743
5.4399095 20.17523 1.9688725
8.20994 30.072512 27.845568
6.7177801 24.640671 18.680328
8.8730001 32.56831 19.921461
10.099917 37.148342 17.883657
5.7412071 21.131222 7.7102914
5.3834682 19.828178 5.0461388
5.4210968 19.966761 2.9778593
5.4825835 20.207153 0.93828142
0.031819373 0.052960131 5.5690613
0.23484217 0.80154508 5.3101263
0.29660651 1.0297639 5.1755161
0.43021885 1.5209001 5.100081
3.0340064 10.823225 26.540375
0.10571458 0.30645323 5.4453278
0.16921347 0.55563426 5.3740072
0.36166379 1.2610848 5.0885558
2.7169552 9.5892048 27.157454
1.5777196 5.6095119 12.112511
8.9382544 32.472454 33.177189
4.1949091 15.271297 12.852096
6.8411026 24.92152 17.028307
9.4971533 34.644569 18.890461
6.4502835 23.546047 9.9520416
5.6162806 20.515654 6.3421249
5.3797183 19.678471 3.9646437
5.5693965 20.372282 1.9889909
8.3148632 30.043671 27.845568
6.7962136 24.589798 18.659725
8.9923687 32.557915 19.934128
10.236763 37.139107 17.896246
5.8199496 21.129261 7.7168651
5.4565187 19.823326 5.0496559
5.5617285 20.20554 3.015156
5.5557361 20.197527 0.93868452
0.032004047 0.052848738 5.5690613
0.23763864 0.80072039 5.3101263
0.30019924 1.0287223 5.1755161
0.4359366 1.520824 5.1048532
3.0733697 10.818206 26.554182
0.10678366 0.30608234 5.4453278
0.17130944 0.55554956 5.3789787
0.36606357 1.2598147 5.0885558
2.7508876 9.5813217 27.162146
1.5960976 5.5997839 12.103509
9.0275898 32.355179 33.089573
4.2158237 15.140324 12.754805
6.9168439 24.857204 17.000891
9.6239586 34.632549 18.902056
5.68786 20.495924 6.3421249
5.4431286 19.640635 3.9609132
5.6484551 20.381512 1.9916735
8.4418707 30.093555 27.91873
6.9038143 24.64377 18.71859
9.1071262 32.530479 19.936661
10.373669 37.129379 17.908833
5.8974791 21.122463 7.721796
5.5439696 19.869703 5.0660686
5.6654963 20.305248 3.032423
5.6288886 20.187635 0.93908757
0.03218833 0.0527367 5.5690613
0.24043222 0.79988605 5.3101263
0.30378833 1.0276682 5.1755161
0.44165906 1.5207264 5.1096253
3.112735 10.813045 26.567989
0.10794833 0.3059797 5.4503193
0.17340682 0.55545682 5.3839498
0.37010384 1.2573234 5.0837164
2.78528 9.574975 27.17153
1.6144265 5.5899954 12.094506
9.0773973 32.10041 32.861778
4.2517323 15.065579 12.704589
7.0160546 24.877176 17.031048
9.7507935 34.62006 18.913649
5.7632661 20.489799 6.3463554
5.5116544 19.621515 3.9609132
5.7155261 20.34729 1.9903322
8.5591173 30.107002 27.958637
6.9953146 24.638962 18.733305
9.2312126 32.535816 19.959459
10.509394 37.114777 17.919323
5.9750309 21.115379 7.7267261
5.6357789 19.929743 5.0859976
5.5449929 19.60869 2.9343464
5.7061152 20.191902 0.94009525
0.032372218 0.052624017 5.5690613
0.24322289 0.79904187 5.3101263
0.3073737 1.0266014 5.1755161
0.44738615 1.5206072 5.114397
3.1515546 10.805864 26.577194
0.10901574 0.305601 5.4503193
0.17550568 0.55535632 5.3889213
0.37449041 1.2560239 5.0837164
2.8191733 9.5668497 27.176224
1.6320951 5.5780573 12.081002
9.1432219 31.9074 32.697063
4.2828898 14.975801 12.64182
8.7115192 30.481171 20.869101
9.8776608 34.607113 18.925243
11.293364 39.593285 16.723055
5.8426437 20.497238 6.3548155
5.5612831 19.536013 3.9478564
8.6713943 30.102057 27.981915
4.7210813 16.410433 12.51735
9.3518734 32.528252 19.974657
10.645144 37.099674 17.929813
6.0526056 21.108011 7.7316566
5.7093301 19.923967 5.0895147
5.5929441 19.517805 2.923986
5.7518067 20.085411 0.93646777
0.032529693 0.052475672 5.5640616
0.24623971 0.79893053 5.3150659
0.31095535 1.0255222 5.1755161
0.45311776 1.5204668 5.1191688
3.190362 10.798544 26.586399
0.11018061 0.30548987 5.4553113
0.17760596 0.5552479 5.3938932
0.37887248 1.254709 5.0837164
2.8535378 9.560257 27.18561
1.650319 5.5681515 12.072
9.2833796 31.974609 32.798695
4.3383889 14.971973 12.651235
8.8283329 30.486721 20.893772
10.002093 34.585186 18.932199
11.455957 39.638241 16.758644
5.9154882 20.481327 6.3562255
5.6444182 19.568401 3.9581153
5.6793919 19.68964 1.932659
4.3818831 15.014203 14.011488
4.778336 16.393854 12.51735
9.4737997 32.524376 19.99239
10.782182 37.08844 17.942402
6.1315198 21.104895 7.7382307
5.7801981 19.908585 5.0906868
5.6886549 19.593277 2.9377997
5.8218827 20.06521 0.93646777
0.032712668 0.052361805 5.5640616
0.24925873 0.7988078 5.3200049
0.3145332 1.0244306 5.1755161
0.45885387 1.520305 5.1239409
3.2291567 10.791085 26.595604
0.1112463 0.30510342 5.4553113
0.17970759 0.55513155 5.3988647
0.38361764 1.2545809 5.0885558
2.8873916 9.5518904 27.190302
1.6678678 5.5561028 12.058496
4.4081659 15.016494 12.701449
8.9500008 30.507881 20.929413
10.133967 34.588322 18.95307
11.599462 39.615807 16.766134
5.9950275 20.488176 6.3646855
5.7250915 19.591015 3.9665089
5.7313247 19.612335 1.9272941
4.4353247 15.002398 14.014814
4.814929 16.307297 12.464374
9.5970345 32.524189 20.012655
10.919272 37.076698 17.95499
6.2091522 21.096952 7.7431612
5.8551421 19.906939 5.0953765
5.7570133 19.573301 2.9377997
0.032868981 0.052212454 5.5590615
0.25204554 0.7979328 5.3200049
0.31810722 1.0233264 5.1755161
0.46459436 1.5201216 5.1287131
3.2679381 10.783487 26.604809
0.11241131 0.30498379 5.4603028
0.18181059 0.55500734 5.4038358
0.38799459 1.2532341 5.0885558
2.9212215 9.5434046 27.194996
1.6853523 5.5439978 12.044992
6.149374 20.419395 23.196354
8.69382 29.181616 30.002068
4.5493073 15.299484 12.952526
9.0659666 30.50852 20.951345
10.260943 34.573971 18.964663
6.0692348 20.476322 6.3675056
5.8004136 19.594461 3.9711721
5.8294349 19.692488 1.9366827
5.9710913 19.940763 18.620632
4.8625579 16.259411 12.440828
9.7129745 32.498753 20.017723
11.056411 37.064453 17.967579
6.2881527 21.09325 7.7497354
5.9287581 19.900354 5.0988932
5.8366137 19.591055 2.9433253
5.9646721 20.033651 0.93687075
0.033051036 0.052097403 5.5590615
0.25482932 0.79704821 5.3200049
0.32198316 1.023181 5.1804109
0.47033912 1.5199164 5.1334848
3.3067062 10.77575 26.614016
0.11347522 0.30458957 5.4603028
0.18391488 0.5548752 5.4088073
0.39274299 1.2530717 5.0933952
2.9550271 9.5347967 27.199688
1.7027727 5.5318394 12.031489
6.206769 20.352409 23.144901
