# .PCD v0.7 - Point Cloud Data file format
VERSION 0.7
FIELDS x y z
SIZE 4 4 4
TYPE F F F
COUNT 1 1 1
WIDTH 1375
HEIGHT 1
VIEWPOINT 0 0 0 1 0 0 0
POINTS 1375
DATA ascii
-0.85602427 -0.078836709 0.59077305
-0.84619635 -0.078371018 0.48031163
-0.82810813 -0.076836817 0.37859708
-0.83742595 -0.077843465 0.29356396
-0.84304291 -0.078362942 0.21030425
-0.83047056 -0.077335455 0.12732106
-1.1081405 -0.08069846 7.0635629
-1.2115655 -0.093872145 5.8657427
-1.0352205 -0.085257716 3.3678508
-0.98217261 -0.08327432 2.3817246
-0.91902554 -0.079196662 1.757731
-0.89213324 -0.077804916 1.3878829
-0.88316298 -0.077478908 1.1380712
-1.1036234 -0.086841233 4.2997298
-0.99846339 -0.081864223 2.7785323
-0.94097769 -0.078946233 2.0162883
-0.90860629 -0.077330977 1.5617512
-0.88231885 -0.07570339 1.2473869
-0.87257224 -0.0754686 1.0277618
-0.86716604 -0.077591583 0.93536103
-0.85202587 -0.076677077 0.77217656
-0.83924878 -0.075670265 0.63708025
-0.84849483 -0.076794438 0.53252316
-0.84572566 -0.076687545 0.43141592
-0.83638036 -0.075982355 0.33679563
-0.83651727 -0.076284051 0.25095019
-0.83792865 -0.076410167 0.16848512
-0.85525227 -0.075317487 0.84583306
-0.84811705 -0.074980088 0.7035042
-0.8520003 -0.075467937 0.58823985
-0.84646481 -0.075416766 0.48031163
-0.82837129 -0.073945716 0.37859708
-0.83769256 -0.07491982 0.29356396
-0.83837891 -0.07497862 0.20961356
-0.83571142 -0.074881949 0.1275226
-1.1084154 -0.076829843 7.0635629
-1.2108704 -0.089567497 5.8608475
-1.0355117 -0.081643604 3.3678508
-0.98051006 -0.079687364 2.3771222
-0.91690952 -0.075791106 1.7533419
-0.89239937 -0.074690312 1.3878829
-0.8834281 -0.074395619 1.1380712
-1.1026663 -0.08289431 4.2948899
-0.99874312 -0.078378439 2.7785323
-0.9390775 -0.075486913 2.0117872
-0.90627122 -0.073946983 1.5574853
-0.88257778 -0.072623067 1.2473869
-0.87283033 -0.072422288 1.0277618
-0.86743158 -0.074564137 0.93536103
-0.85228837 -0.073702492 0.77217656
-0.83950782 -0.072740279 0.63708025
-0.84875774 -0.073832177 0.53252316
-0.84598821 -0.073734947 0.43141592
-0.83664048 -0.073062383 0.33679563
-0.8367784 -0.073363595 0.25095019
-0.83819026 -0.073484778 0.16848512
-0.85550994 -0.072331637 0.84583306
-0.84837365 -0.072019145 0.7035042
-0.84796327 -0.072128229 0.58570671
-0.8467229 -0.072461598 0.48031163
-0.82862437 -0.071053706 0.37859708
-0.83794898 -0.071995273 0.29356396
-0.83863556 -0.072051674 0.20961356
-0.83596778 -0.071964316 0.1275226
-1.1079015 -0.072909467 7.0586238
-1.2101599 -0.08526884 5.8559523
-1.0357903 -0.0780285 3.3678508
-0.98078227 -0.076264255 2.3771222
-0.9171685 -0.072590031 1.7533419
-0.89265466 -0.0715748 1.3878829
-0.8804875 -0.071053818 1.1342337
-1.1029488 -0.079044782 4.2948899
-0.99901062 -0.074891694 2.7785323
-0.93933529 -0.072208457 2.0117872
-0.90652382 -0.070783056 1.5574853
-0.88282585 -0.069541857 1.2473869
-0.87307781 -0.069375105 1.0277618
-0.86768657 -0.071535781 0.93536103
-0.84866142 -0.070405357 0.76903814
-0.83975661 -0.069809414 0.63708025
-0.84459591 -0.07050065 0.53020442
-0.84624046 -0.070781447 0.43141592
-0.83689046 -0.070141517 0.33679563
-0.83702946 -0.070442244 0.25095019
-0.83347929 -0.070140921 0.16803804
-0.85575724 -0.069344915 0.84583306
-0.84861988 -0.06905733 0.7035042
-0.83961678 -0.068467401 0.58064032
-0.84697068 -0.069505535 0.48031163
-0.82886738 -0.068160839 0.37859708
-0.83819515 -0.069069847 0.29356396
-0.83888191 -0.069123849 0.20961356
-0.83123487 -0.068634704 0.12732106
-1.1081493 -0.069041722 7.0586238
-1.2094343 -0.08097624 5.8510571
-1.0345676 -0.074305721 3.3630788
-0.97909409 -0.072695777 2.3725195
-0.91741627 -0.069388077 1.7533419
-0.8928991 -0.068458416 1.3878829
-0.88073015 -0.067979909 1.1342337
-1.1019641 -0.075109027 4.290051
-0.99754465 -0.071281262 2.7738397
-0.93958163 -0.068929128 2.0117872
-0.90416455 -0.067424536 1.5532194
-0.8830632 -0.066459797 1.2473869
-0.86993426 -0.066070527 1.0240866
-0.86793101 -0.068506554 0.93536103
-0.84890199 -0.067442551 0.76903814
-0.83582687 -0.066545978 0.6343388
-0.84483689 -0.06755203 0.53020442
-0.85110348 -0.068197265 0.43328893
-0.83713019 -0.067219794 0.33679563
-0.8372702 -0.067520037 0.25095019
-0.83371902 -0.067231111 0.16803804
-0.85599405 -0.066357344 0.84583306
-0.84885579 -0.066094674 0.7035042
-0.83985066 -0.065536171 0.58064032
-0.84268361 -0.066193335 0.47821358
-0.82910019 -0.065267131 0.37859708
-0.83843118 -0.06614358 0.29356396
-0.83911806 -0.066195183 0.20961356
-0.83146936 -0.065732732 0.12732106
-1.1083835 -0.065173142 7.0586238
-1.2086934 -0.07668975 5.8461618
-1.0348208 -0.070693947 3.3630788
-0.97934186 -0.069277659 2.3725195
-0.91526413 -0.066013202 1.7489529
-0.89313257 -0.065341204 1.3878829
-0.88096213 -0.064905174 1.1342337
-1.1022196 -0.071261995 4.290051
-0.99606568 -0.067681976 2.7691467
-0.93764484 -0.065497488 2.0072861
-0.90439445 -0.064268008 1.5532194
-0.88328981 -0.063376926 1.2473869
-0.87015957 -0.063033484 1.0240866
-0.86816484 -0.065476492 0.93536103
-0.84913224 -0.064478919 0.76903814
-0.83605409 -0.063627988 0.6343388
-0.84065056 -0.064265043 0.52788562
-0.85133636 -0.065225944 0.43328893
-0.83735973 -0.064297259 0.33679563
-0.83750081 -0.064597003 0.25095019
-0.83394861 -0.064320482 0.16803804
-0.85249692 -0.063093558 0.84250754
-0.84908134 -0.063131206 0.7035042
-0.83577538 -0.062283933 0.57810718
-0.84290951 -0.063251421 0.47821358
-0.82932299 -0.062372636 0.37859708
-0.83381003 -0.06285122 0.29239166
-0.83934402 -0.063265711 0.20961356
-0.83169377 -0.062829971 0.12732106
-1.1078284 -0.061261065 7.0536847
-1.2089537 -0.072470158 5.8461618
-1.0335716 -0.066984989 3.3583069
-0.97957772 -0.065858692 2.3725195
-0.91548896 -0.062817939 1.7489529
-0.89335519 -0.062223189 1.3878829
-0.88118327 -0.061829649 1.1342337
-1.1012069 -0.067337573 4.2852116
-0.99457383 -0.064093888 2.7644541
-0.93786776 -0.06222409 2.0072861
-0.90201116 -0.060935121 1.5489535
-0.88049942 -0.060088333 1.243397
-0.86699212 -0.059762727 1.0204115
-0.86838812 -0.062445633 0.93536103
-0.84935218 -0.061514501 0.76903814
-0.83627111 -0.060709227 0.6343388
-0.83645165 -0.061008122 0.52556682
-0.85618246 -0.062591746 0.43516198
-0.83757907 -0.061373934 0.33679563
-0.83772123 -0.06167319 0.25095019
-0.83416808 -0.061409064 0.16803804
-0.85271192 -0.060117397 0.84250754
-0.84526455 -0.059881505 0.70056105
-0.83598775 -0.059366159 0.57810718
-0.83859813 -0.059985027 0.47611555
-0.82953566 -0.059477378 0.37859708
-0.83402437 -0.059940293 0.29239166
-0.83955979 -0.060335469 0.20961356
-0.83190805 -0.059926432 0.12732106
-1.1080354 -0.057393648 7.0536847
-1.2081826 -0.068192475 5.8412666
-1.0337991 -0.063376747 3.3583069
-0.97980165 -0.062438928 2.3725195
-0.91331273 -0.059466515 1.7445638
-0.89075905 -0.058918901 1.38375
-0.88459188 -0.058966346 1.1380712
-1.1001804 -0.0634211 4.2803721
-0.99306893 -0.060517035 2.7597613
-0.93590659 -0.058813632 2.0027847
-0.9022184 -0.057786144 1.5489535
-0.88070381 -0.05701445 1.243397
-0.86719543 -0.056736 1.0204115
-0.86860079 -0.05941401 0.93536103
-0.84956169 -0.05854933 0.76903814
-0.84064943 -0.058077767 0.63708025
-0.83665955 -0.058087982 0.52556682
-0.85639572 -0.059602726 0.43516198
-0.83300275 -0.058116075 0.33538559
-0.83793133 -0.058748621 0.25095019
-0.83437735 -0.0584969 0.16803804
-0.8529166 -0.057140514 0.84250754
-0.8454684 -0.056930616 0.70056105
-0.83618987 -0.056447651 0.57810718
-0.83427435 -0.056749512 0.4740175
-0.82973826 -0.056581397 0.37859708
-0.83422852 -0.05702864 0.29239166
-0.83976525 -0.057404492 0.20961356
-0.83211213 -0.057022169 0.12732106
-1.108229 -0.053525534 7.0536847
-1.2084134 -0.063974716 5.8412666
-1.034014 -0.059767723 3.3583069
-0.97806358 -0.058901176 2.3679171
-0.91351473 -0.056278095 1.7445638
-0.89095932 -0.055809211 1.38375
-0.88479233 -0.055878185 1.1380712
-1.100395 -0.059580371 4.2803721
-0.99155134 -0.056951478 2.7550685
-0.93610615 -0.055546347 2.0027847
-0.90241462 -0.05463646 1.5489535
-0.8808974 -0.053939871 1.243397
-0.86738819 -0.053708579 1.0204115
-0.86880291 -0.056381665 0.93536103
-0.84976089 -0.055583451 0.76903814
-0.84084707 -0.055143006 0.63708025
-0.83685726 -0.055167146 0.52556682
-0.86122435 -0.056918606 0.43703499
-0.83320051 -0.055207998 0.33538559
-0.8332299 -0.055496924 0.25001755
-0.83457643 -0.055584021 0.16803804
-0.85311085 -0.054162931 0.84250754
-0.845662 -0.053979035 0.70056105
-0.84068382 -0.053803645 0.58064032
-0.83446741 -0.053837001 0.4740175
-0.83464301 -0.053989455 0.38024059
-0.82957214 -0.053801775 0.29121932
-0.83996058 -0.054472812 0.20961356
-0.83230609 -0.054117206 0.12732106
-1.1084092 -0.049656764 7.0536847
-1.2076124 -0.059706088 5.8363714
-1.0327258 -0.056077253 3.3535349
-0.9782632 -0.055486739 2.3679171
-0.91370559 -0.053088989 1.7445638
-0.89114863 -0.052698843 1.38375
-0.88498199 -0.052789345 1.1380712
-1.0993408 -0.055675529 4.2755322
-0.99002087 -0.053397246 2.7503757
-0.93629432 -0.052278392 2.0027847
-0.90259981 -0.051486112 1.5489535
-0.88108033 -0.050864637 1.243397
-0.86418605 -0.050482988 1.0167363
-0.86899441 -0.053348634 0.93536103
-0.84994978 -0.052616898 0.76903814
-0.84520787 -0.052466478 0.63982177
-0.84146589 -0.052521467 0.52788562
-0.86141777 -0.053912025 0.43703499
-0.83338821 -0.05229925 0.33538559
-0.83341861 -0.052588072 0.25001755
-0.8297953 -0.052356906 0.16759096
-0.85329473 -0.051184691 0.84250754
-0.84584522 -0.051026795 0.70056105
-0.84086651 -0.050868779 0.58064032
-0.83465028 -0.050923839 0.4740175
-0.83482635 -0.051075682 0.38024059
-0.82975489 -0.050905704 0.29121932
-0.84014559 -0.051540472 0.20961356
-0.83248991 -0.051211584 0.12732106
-1.1085757 -0.045787394 7.0536847
-1.2078134 -0.055490367 5.8363714
-1.0329152 -0.052472025 3.3535349
-0.97650003 -0.051968019 2.3633144
-0.91388535 -0.049899239 1.7445638
-0.89132714 -0.049587835 1.38375
-0.88516092 -0.049699858 1.1380712
-1.0995286 -0.051837776 4.2755322
-0.98847783 -0.049854401 2.745683
-0.9364711 -0.049009796 2.0027847
-0.90277404 -0.048335139 1.5489535
-0.88125253 -0.047788784 1.243397
-0.86435699 -0.04746611 1.0167363
-0.86917531 -0.050314952 0.93536103
-0.85012823 -0.049649697 0.76903814
-0.84538585 -0.049515832 0.63982177
-0.84164411 -0.049583886 0.52788562
-0.8616007 -0.050904788 0.43703499
-0.83356571 -0.049389862 0.33538559
-0.83359706 -0.049678579 0.25001755
-0.82997298 -0.049460061 0.16759096
-0.85346824 -0.048205823 0.84250754
-0.84601825 -0.048073933 0.70056105
-0.84103894 -0.047933299 0.58064032
-0.83482295 -0.048010059 0.4740175
-0.83971393 -0.04843311 0.3818841
-0.8299275 -0.048009008 0.29121932
-0.84032035 -0.048607502 0.20961356
-0.8326636 -0.048305344 0.12732106
-1.1087288 -0.041917462 7.0536847
-1.2069824 -0.051230982 5.8314762
-1.0316011 -0.048795842 3.348763
-0.97277296 -0.048365481 2.3541093
-0.91405398 -0.046708878 1.7445638
-0.89149487 -0.046476223 1.38375
-0.88532901 -0.046609767 1.1380712
-1.0984471 -0.047944784 4.2706933
-0.98864579 -0.046403665 2.745683
-0.93663645 -0.045740604 2.0027847
-0.90293729 -0.045183573 1.5489535
-0.88141394 -0.044712346 1.243397
-0.86451745 -0.044448648 1.0167363
-0.8657847 -0.047087178 0.93185651
-0.85029638 -0.046681892 0.76903814
-0.84972864 -0.046794351 0.64256322
-0.84181201 -0.046645693 0.52788562
-0.86177313 -0.047896933 0.43703499
-0.83373296 -0.046479877 0.33538559
-0.83376539 -0.046768479 0.25001755
-0.83014059 -0.046562612 0.16759096
-0.85363126 -0.045226373 0.84250754
-0.84618092 -0.045120481 0.70056105
-0.84120113 -0.044997234 0.58064032
-0.83498538 -0.04509569 0.4740175
-0.83987784 -0.045501664 0.3818841
-0.83009005 -0.045111727 0.29121932
-0.83554024 -0.04540528 0.20892289
-0.83282721 -0.045398507 0.12732106
-1.1088684 -0.038047023 7.0536847
-1.2061365 -0.046978075 5.826581
-1.0317651 -0.045194585 3.348763
-0.9709844 -0.044879593 2.3495069
-0.91181916 -0.043404296 1.7401747
-0.88884097 -0.043227557 1.3796171
-0.88228488 -0.043361973 1.1342337
-1.0973517 -0.044059969 4.2658539
-0.98707759 -0.042877693 2.7409902
-0.93461579 -0.04237248 1.9982835
-0.90308946 -0.04203146 1.5489535
-0.88156468 -0.041635364 1.243397
-0.8646673 -0.041430648 1.0167363
-0.86594379 -0.044064738 0.93185651
-0.85045415 -0.043713517 0.76903814
-0.84988683 -0.043827962 0.64256322
-0.84196979 -0.043706939 0.52788562
-0.86193508 -0.044888493 0.43703499
-0.83389014 -0.043569323 0.33538559
-0.83392358 -0.043857809 0.25001755
-0.83029807 -0.043664597 0.16759096
-0.85378397 -0.042246368 0.84250754
-0.84633327 -0.042166486 0.70056105
-0.84135312 -0.042060621 0.58064032
-0.83513772 -0.042180769 0.4740175
-0.84474772 -0.042808574 0.38352761
-0.83509678 -0.042460658 0.29239166
-0.8356936 -0.042488422 0.20892289
-0.83298057 -0.042491123 0.12732106
-1.1089945 -0.034176119 7.0536847
-1.2062931 -0.042767584 5.826581
-1.0304251 -0.041532878 3.343991
-0.97113508 -0.041489951 2.3495069
-0.91196513 -0.040221188 1.7401747
-0.88898647 -0.040124658 1.3796171
-0.88243091 -0.040281963 1.1342337
-1.0974988 -0.040229231 4.2658539
-0.9872213 -0.039431885 2.7409902
-0.93475801 -0.039109807 1.9982835
-0.90062505 -0.038766891 1.5446876
-0.88170469 -0.03855788 1.243397
-0.86480665 -0.038412146 1.0167363
-0.86609232 -0.041041765 0.93185651
-0.85060155 -0.040744614 0.76903814
-0.85003465 -0.040861037 0.64256322
-0.84211719 -0.040767651 0.52788562
-0.86208653 -0.041879501 0.43703499
-0.83403718 -0.040658236 0.33538559
-0.83407158 -0.040946607 0.25001755
-0.83541942 -0.04101019 0.16803804
-0.857656 -0.039437175 0.84583306
-0.85051298 -0.039398856 0.7035042
-0.8414948 -0.039123494 0.58064032
-0.83527988 -0.039265338 0.4740175
-0.84489197 -0.039859597 0.38352761
-0.83523989 -0.039545368 0.29239166
-0.83583683 -0.039571051 0.20892289
-0.8331238 -0.039583221 0.12732106
-1.109107 -0.030304797 7.0536847
-1.2054173 -0.03852424 5.8216858
-1.029072 -0.037881069 3.3392189
-0.96932179 -0.038023442 2.3449044
-0.91209996 -0.037037592 1.7401747
-0.88912112 -0.037021276 1.3796171
-0.87936372 -0.037066676 1.1303962
-1.0963763 -0.036356542 4.2610145
-0.98735291 -0.0359856 2.7409902
-0.93271345 -0.035763465 1.9937823
-0.90075487 -0.035622887 1.5446876
-0.88183385 -0.035479918 1.243397
-0.86832279 -0.035531592 1.0204115
-0.86623031 -0.038018286 0.93185651
-0.85073858 -0.037775215 0.76903814
-0.8501721 -0.037893612 0.64256322
-0.84225434 -0.037827864 0.52788562
-0.8622275 -0.038870003 0.43703499
-0.83417404 -0.037746653 0.33538559
-0.83420944 -0.038034905 0.25001755
-0.83555746 -0.038093779 0.16803804
-0.85778844 -0.036443155 0.84583306
-0.8506453 -0.036429774 0.7035042
-0.84162623 -0.03618589 0.58064032
-0.83541185 -0.036349431 0.4740175
-0.84502602 -0.036910132 0.38352761
-0.83537287 -0.036629599 0.29239166
-0.83596987 -0.036653195 0.20892289
-0.8332569 -0.036674831 0.12732106
-1.109206 -0.026433107 7.0536847
-1.2055445 -0.034316313 5.8216858
-1.0291981 -0.034288704 3.3392189
-0.96944863 -0.034639649 2.3449044
-0.9122237 -0.033853542 1.7401747
-0.88924491 -0.033917435 1.3796171
-0.87948775 -0.033996902 1.1303962
-1.0964965 -0.032529254 4.2610145
-0.98747247 -0.032538876 2.7409902
-0.93283266 -0.032507472 1.9937823
-0.89826739 -0.032384697 1.5404216
-0.87894112 -0.032291111 1.2394069
-0.86844152 -0.03250036 1.0204115
-0.86635768 -0.034994349 0.93185651
-0.85086524 -0.03480535 0.76903814
-0.85029918 -0.034925729 0.64256322
-0.8468073 -0.035070803 0.53020442
-0.86235791 -0.035860032 0.43703499
-0.83909357 -0.035034657 0.33679563
-0.83433712 -0.035122737 0.25001755
-0.83568537 -0.03517691 0.16803804
-0.85791045 -0.033448692 0.84583306
-0.85076731 -0.033460245 0.7035042
-0.83743995 -0.033077855 0.57810718
-0.83553362 -0.033433076 0.4740175
-0.8451497 -0.033960216 0.38352761
-0.83549559 -0.033713378 0.29239166
-0.84104067 -0.033934489 0.20961356
-0.82838798 -0.033563763 0.12711954
-1.1092916 -0.022561096 7.0536847
-1.204639 -0.030082734 5.8167906
-1.0278195 -0.030651644 3.3344471
-0.9695636 -0.031255428 2.3449044
-0.91233629 -0.030669082 1.7401747
-0.88935786 -0.030813187 1.3796171
-0.87639779 -0.030814286 1.1265587
-1.0953468 -0.028668882 4.2561746
-0.98758006 -0.029091755 2.7409902
-0.93294042 -0.029251078 1.9937823
-0.89837497 -0.029248966 1.5404216
-0.87904847 -0.029222837 1.2394069
-0.8685497 -0.029468738 1.0204115
-0.86647463 -0.031969979 0.93185651
-0.85098159 -0.031835064 0.76903814
-0.85041589 -0.031957414 0.64256322
-0.8469246 -0.032114677 0.53020442
-0.86247784 -0.032849621 0.43703499
-0.83921075 -0.032105461 0.33679563
-0.8344546 -0.032210145 0.25001755
-0.83580303 -0.03225961 0.16803804
-0.85802197 -0.030453824 0.84583306
-0.85087889 -0.030490309 0.7035042
-0.83755028 -0.030154439 0.57810718
-0.83564526 -0.030516317 0.4740175
-0.84526306 -0.031009883 0.38352761
-0.83560818 -0.030796748 0.29239166
-0.84115404 -0.0309985 0.20961356
-0.82850015 -0.030671943 0.12711954
-1.1085867 -0.018675923 7.0487452
-1.2047366 -0.025877576 5.8167906
-1.0279202 -0.027063698 3.3344471
-0.96771401 -0.027814919 2.340302
-0.9124378 -0.027484247 1.7401747
-0.88945997 -0.02770856 1.3796171
-0.87650001 -0.027754901 1.1265587
-1.0954401 -0.024845233 4.2561746
-0.98940074 -0.025688853 2.745683
-0.9308607 -0.025933927 1.9892812
-0.89586467 -0.02603732 1.5361557
-0.87914515 -0.026154207 1.2394069
-0.86525863 -0.026333816 1.0167363
-0.8665809 -0.028945226 0.93185651
-0.85108751 -0.028864391 0.76903814
-0.85052228 -0.028988717 0.64256322
-0.84703153 -0.029158166 0.53020442
-0.85795414 -0.029678641 0.43516198
-0.83931768 -0.029175876 0.33679563
-0.83456194 -0.029297158 0.25001755
-0.83591056 -0.029341916 0.16803804
-0.85812306 -0.027458582 0.84583306
-0.85098016 -0.027520001 0.7035042
-0.83765048 -0.027230661 0.57810718
-0.83574671 -0.027599184 0.4740175
-0.84536618 -0.028059177 0.38352761
-0.83085275 -0.027717743 0.29121932
-0.84620643 -0.028227188 0.21030425
-0.82860214 -0.027779752 0.12711954
-1.1078681 -0.01479595 7.0438061
-1.2038016 -0.021653978 5.8118949
-1.0265161 -0.023441555 3.329675
-0.96585208 -0.0243877 2.3356993
-0.91252822 -0.024299078 1.7401747
-0.88955128 -0.024603596 1.3796171
-0.87659156 -0.024695177 1.1265587
-1.0942637 -0.020997373 4.2513356
-0.98948443 -0.022235043 2.745683
-0.93094558 -0.022684457 1.9892812
-0.89595008 -0.022910012 1.5361557
-0.8792311 -0.023085259 1.2394069
-0.8653453 -0.02331334 1.0167363
-0.86667669 -0.025920117 0.93185651
-0.85118312 -0.025893366 0.76903814
-0.8506183 -0.026019664 0.64256322
-0.85155576 -0.026338121 0.53252316
-0.85805249 -0.02668364 0.43516198
-0.83941442 -0.026245931 0.33679563
-0.83465916 -0.026383817 0.25001755
-0.83600789 -0.026423866 0.16803804
-0.85821366 -0.024463005 0.84583306
-0.85107106 -0.024549359 0.7035042
-0.84204942 -0.024431426 0.58064032
-0.8358379 -0.024681715 0.4740175
-0.85017902 -0.025248215 0.38517112
-0.83094442 -0.024817357 0.29121932
-0.84629983 -0.025273204 0.21030425
-0.82869405 -0.024887223 0.12711954
-1.107913 -0.010928678 7.0438061
-1.2038698 -0.017451793 5.8118949
-1.0250992 -0.019829547 3.324903
-0.96593136 -0.021016099 2.3356993
-0.91021305 -0.021058438 1.7357856
-0.88963181 -0.021498334 1.3796171
-0.87987667 -0.021714021 1.1303962
-1.0930735 -0.01715803 4.2464962
-0.98955601 -0.018780962 2.745683
-0.93101913 -0.019434713 1.9892812
-0.89602458 -0.019782422 1.5361557
-0.87930632 -0.020016029 1.2394069
-0.86542141 -0.020292578 1.0167363
-0.86676186 -0.022894694 0.93185651
-0.85126829 -0.022922024 0.76903814
-0.8507039 -0.023050293 0.64256322
-0.85164255 -0.023365475 0.53252316
-0.85350621 -0.02356049 0.43328893
-0.8395009 -0.023315668 0.33679563
-0.83474618 -0.02347015 0.25001755
-0.84107304 -0.02364541 0.16848512
-0.85829383 -0.021467131 0.84583306
-0.85115159 -0.021578416 0.7035042
-0.84212953 -0.021491976 0.58064032
-0.83591896 -0.021763947 0.4740175
-0.85026199 -0.022280382 0.38517112
-0.83102602 -0.021916669 0.29121932
-0.84638286 -0.022318913 0.21030425
-0.8337701 -0.022126911 0.12732106
-1.1071674 -0.0070565278 7.0388665
-1.2049416 -0.013260415 5.8167906
-1.0251622 -0.016251162 3.324903
-0.96599877 -0.017644241 2.3356993
-0.910281 -0.017881073 1.7357856
-0.88970143 -0.018392809 1.3796171
-0.87994713 -0.018642545 1.1303962
-1.0918697 -0.013327248 4.2416568
-0.9896155 -0.015326654 2.745683
-0.9310813 -0.01618473 1.9892812
-0.89608818 -0.016654592 1.5361557
-0.87937081 -0.016946556 1.2394069
-0.86548698 -0.017271571 1.0167363
-0.86683649 -0.01986899 0.93185651
-0.8513431 -0.019950405 0.76903814
-0.85077918 -0.020080643 0.64256322
-0.8517189 -0.020392545 0.53252316
-0.85358328 -0.020581055 0.43328893
-0.8395772 -0.02038512 0.33679563
-0.83482301 -0.0205562 0.25001755
-0.84115046 -0.020709373 0.16848512
-0.85836351 -0.018470997 0.84583306
-0.85122168 -0.018607212 0.7035042
-0.84650916 -0.018647056 0.58317351
-0.83598989 -0.018845912 0.4740175
-0.85505551 -0.019419413 0.38681462
-0.83595675 -0.019126834 0.29239166
-0.84645563 -0.01936435 0.21030425
-0.83384222 -0.019216374 0.12732106
-1.1071854 -0.0031917496 7.0388665
-1.2039623 -0.0090468405 5.8118949
-1.0252126 -0.012672579 3.324903
-0.9660545 -0.014272168 2.3356993
-0.90794319 -0.014665036 1.7313966
-0.8897602 -0.015287059 1.3796171
-0.88000679 -0.015570843 1.1303962
-1.0919095 -0.0095158312 4.2416568
-0.98793733 -0.011851676 2.7409902
-0.93113208 -0.012934553 1.9892812
-0.89614087 -0.01352656 1.5361557
-0.87942457 -0.013876875 1.2394069
-0.86554199 -0.014250353 1.0167363
-0.86690062 -0.016843045 0.93185651
-0.85140759 -0.016978541 0.76903814
-0.85084414 -0.017110746 0.64256322
-0.85178488 -0.017419368 0.53252316
-0.85364991 -0.017601369 0.43328893
-0.83484727 -0.017354701 0.33538559
-0.83488971 -0.017641997 0.25001755
-0.84121764 -0.017773082 0.16848512
-0.85842276 -0.015474637 0.84583306
-0.85128146 -0.015635781 0.7035042
-0.84656912 -0.015692074 0.58317351
-0.83605057 -0.015927648 0.4740175
-0.8551181 -0.016434595 0.38681462
-0.83601844 -0.016208684 0.29239166
-0.84156692 -0.016313618 0.20961356
-0.83390421 -0.016305605 0.12732106
-1.1064128 0.00067238987 7.0339274
-1.2039866 -0.0048441719 5.8118949
-1.0237579 -0.0090808142 3.3201311
-0.96609843 -0.010899922 2.3356993
-0.90798885 -0.011495634 1.7313966
-0.88980812 -0.012181123 1.3796171
-0.8768509 -0.01245364 1.1265587
-1.0906792 -0.0056979354 4.2368169
-0.98797274 -0.0084030591 2.7409902
-0.93117154 -0.0096842172 1.9892812
-0.8961826 -0.010398361 1.5361557
-0.87645465 -0.010770213 1.2354169
-0.86558646 -0.01122896 1.0167363
-0.86695409 -0.013816895 0.93185651
-0.85146165 -0.014006471 0.76903814
-0.85089868 -0.01414064 0.64256322
-0.8518405 -0.014445976 0.53252316
-0.8583414 -0.014700757 0.43516198
-0.83490276 -0.014440433 0.33538559
-0.83494616 -0.014727582 0.25001755
-0.8412745 -0.014836578 0.16848512
-0.85473824 -0.012424001 0.84250754
-0.85133088 -0.012664158 0.7035042
-0.84661877 -0.012736902 0.58317351
-0.83610106 -0.013009191 0.4740175
-0.85517025 -0.013449574 0.38681462
-0.83606988 -0.013290336 0.29239166
-0.84161872 -0.013375903 0.20961356
-0.83895135 -0.013474854 0.1275226
-1.1064036 0.0045344867 7.0339274
-1.202978 -0.00064108957 5.8070002
-1.0237834 -0.0055071772 3.3201311
-0.96417701 -0.0075125396 2.3310966
-0.90562862 -0.0083043547 1.7270075
-0.88703138 -0.0090465527 1.3754841
-0.87688905 -0.009392783 1.1265587
-1.0906924 -0.0018907196 4.2368169
-0.98799604 -0.0049543399 2.7409902
-0.92902279 -0.0064189439 1.9847798
-0.89360553 -0.0072490987 1.5318898
-0.8764869 -0.0077107497 1.2354169
-0.86562037 -0.0082074311 1.0167363
-0.86699706 -0.010790576 0.93185651
-0.85150534 -0.01103423 0.76903814
-0.85094285 -0.011170364 0.64256322
-0.85188574 -0.011472411 0.53252316
-0.85838747 -0.011704496 0.43516198
-0.834948 -0.011525991 0.33538559
-0.83499247 -0.011812987 0.25001755
-0.84132117 -0.011899892 0.16848512
-0.85477638 -0.0094403317 0.84250754
-0.85136986 -0.0096923821 0.7035042
-0.84665805 -0.009781572 0.58317351
-0.83614135 -0.010090574 0.4740175
-0.85521197 -0.010464392 0.38681462
-0.83611119 -0.010371828 0.29239166
-0.84166032 -0.010438024 0.20961356
-0.83899325 -0.010546286 0.1275226
-1.1063811 0.0083965277 7.0339274
-1.2019547 0.0035548927 5.8021049
-1.0237964 -0.0019334728 3.3201311
-0.9622438 -0.0041387049 2.3264942
-0.90565205 -0.0051430706 1.7270075
-0.88705754 -0.0059501808 1.3754841
-0.87371123 -0.006308875 1.1227211
-1.0919493 0.0019189321 4.2416568
-0.98628163 -0.0015031502 2.7362974
-0.92903954 -0.0031760102 1.9847798
-0.89362538 -0.0041297898 1.5318898
-0.87650847 -0.0046511926 1.2354169
-0.8656438 -0.0051858015 1.0167363
-0.86702943 -0.0077641262 0.93185651
-0.85543084 -0.008098538 0.77217656
-0.85097665 -0.0081999516 0.64256322
-0.8519206 -0.008498705 0.53252316
-0.85842311 -0.0087080933 0.43516198
-0.83498317 -0.008611409 0.33538559
-0.83502865 -0.008898247 0.25001755
-0.84135759 -0.0089630606 0.16848512
-0.85480416 -0.0064565483 0.84250754
-0.85139853 -0.0067204875 0.7035042
-0.84237635 -0.0067915157 0.58064032
-0.83617151 -0.0071718344 0.4740175
-0.85524327 -0.0074790805 0.38681462
-0.8361423 -0.0074531911 0.29239166
-0.84169155 -0.0075000171 0.20961356
-0.83902496 -0.0076175877 0.1275226
-1.1055681 0.012249653 7.0289884
-1.2009168 0.0077437223 5.7972097
-1.0237969 0.0016402552 3.3201311
-0.96029866 -0.00077845802 2.3218915
-0.9056645 -0.0019817241 1.7270075
-0.88707292 -0.0028537358 1.3754841
-0.87372792 -0.003259015 1.1227211
-1.091936 0.0057305349 4.2416568
-0.9862808 0.0019396241 2.7362974
-0.92686808 6.6582375e-05 1.9802787
-0.89363438 -0.0010104298 1.5318898
-0.87651938 -0.0015915787 1.2354169
-0.86565661 -0.0021641096 1.0167363
-0.86705124 -0.0047375816 0.93185651
-0.85545391 -0.0051124776 0.77217656
-0.85100007 -0.0052294391 0.64256322
-0.85194504 -0.0055248956 0.53252316
-0.85844827 -0.0057115848 0.43516198
-0.83500814 -0.0056967214 0.33538559
-0.83505458 -0.0059833988 0.25001755
-0.84138376 -0.0060261195 0.16848512
-0.85482144 -0.0034726856 0.84250754
-0.85141677 -0.0037485114 0.7035042
-0.84239495 -0.0038510324 0.58064032
-0.83165306 -0.0042300359 0.47191945
-0.85054207 -0.0044689537 0.38517112
-0.83616322 -0.0045344648 0.29239166
-0.84171265 -0.0045619202 0.20961356
-0.83904642 -0.0046887975 0.1275226
-1.1055186 0.016108731 7.0289884
-1.1998641 0.011925349 5.7923141
-1.023785 0.0052139633 3.3201311
-0.95638824 0.0025627033 2.3126867
-0.90566593 0.001179647 1.7270075
-0.88707745 0.00024274377 1.3754841
-0.873734 -0.00020911569 1.1227211
-1.0931664 0.0095532574 4.2464962
-0.98626804 0.0053823749 2.7362974
-0.92686212 0.0033019551 1.9802787
-0.89363247 0.0021089425 1.5318898
-0.87651956 0.0014680545 1.2354169
-0.86565888 0.00085760886 1.0167363
-0.86706251 -0.001710979 0.93185651
-0.85546649 -0.0021263554 0.77217656
-0.85101318 -0.0022588626 0.64256322
-0.85195917 -0.0025510187 0.53252316
-0.85846299 -0.0027150065 0.43516198
-0.83502299 -0.0027819641 0.33538559
-0.83507043 -0.0030684778 0.25001755
-0.84139967 -0.0030891055 0.16848512
-0.85856211 -0.00049073627 0.84583306
-0.85142469 -0.00077648944 0.7035042
-0.84240329 -0.00091050169 0.58064032
-0.83166271 -0.0013269992 0.47191945
-0.8505525 -0.0014999806 0.38517112
-0.83617395 -0.0016156828 0.29239166
-0.84172344 -0.0016237666 0.20961356
-0.83905768 -0.0017599507 0.1275226
-1.1062324 0.019981852 7.0339274
-1.1987972 0.016099725 5.7874193
-1.0222679 0.0087745832 3.3153591
-0.95832711 0.005913381 2.3172891
-0.90565628 0.0043410035 1.7270075
-0.8842572 0.0033284156 1.3713511
-0.87372941 0.0028407865 1.1227211
-1.0931264 0.013369061 4.2464962
-0.98624325 0.00882506 2.7362974
-0.92684495 0.0065372875 1.9802787
-0.89361966 0.0052282889 1.5318898
-0.87650913 0.0045276699 1.2354169
-0.86565059 0.0038793168 1.0167363
-0.86706316 0.0013156442 0.93185651
-0.85546875 0.00085979275 0.77217656
-0.85101587 0.00071174145 0.64256322
-0.85196292 0.00042288908 0.53252316
-0.85383129 0.00027998732 0.43328893
-0.83502758 0.00013282681 0.33538559
-0.83998829 -0.00015437719 0.25095019
-0.84140533 -0.00015205375 0.16848512
-0.8585586 0.0025062077 0.84583306
-0.85142225 0.002195542 0.7035042
-0.84671211 0.0020405729 0.58317351
-0.8316623 0.0015760536 0.47191945
-0.84583044 0.0014607694 0.38352761
-0.83617449 0.0013031188 0.29239166
-0.84172398 0.0013144063 0.20961356
-0.83905876 0.001168918 0.1275226
-1.106156 0.023843201 7.0339274
-1.1987338 0.020284211 5.7874193
-1.0237236 0.012361146 3.3201311
-0.96220779 0.009296719 2.3264942
-0.9056356 0.0075023076 1.7270075
-0.88424015 0.0064150286 1.3713511
-0.87371415 0.0058906539 1.1227211
-1.093073 0.017184703 4.2464962
-0.98448092 0.012245953 2.7316046
-0.92681652 0.009772541 1.9802787
-0.89620382 0.0083721513 1.5361557
-0.87648797 0.0075872303 1.2354169
-0.86563176 0.0069009783 1.0167363
-0.86705333 0.0043422515 0.93185651
-0.85546046 0.0038459306 0.77217656
-0.85100818 0.0036823365 0.64256322
-0.85195625 0.0033967921 0.53252316
-0.85382509 0.003260413 0.43328893
-0.83981901 0.0030651977 0.33679563
-0.83998376 0.0027777301 0.25095019
-0.84140074 0.0027849998 0.16848512
-0.86227834 0.0055272328 0.84915853
-0.85140938 0.0051675467 0.7035042
-0.84669983 0.0049961372 0.58317351
-0.83165169 0.004479087 0.47191945
-0.84582019 0.0044132597 0.38352761
-0.83616483 0.0042219046 0.29239166
-0.84171426 0.0042525632 0.20961356
-0.83904958 0.0040977723 0.1275226
-1.1052892 0.027684599 7.0289884
-1.1976376 0.024447478 5.7825241
-1.0236742 0.015934533 3.3201311
-0.96607637 0.012707221 2.3356993
-0.90560389 0.010663521 1.7270075
-0.88421243 0.0095015634 1.3713511
-0.87368834 0.0089404499 1.1227211
-1.0930064 0.021000136 4.2464962
-0.98443222 0.01568236 2.7316046
-0.92677677 0.013007674 1.9802787
-0.89616919 0.011500435 1.5361557
-0.87645614 0.010646698 1.2354169
-0.86560243 0.0099225547 1.0167363
-0.86703283 0.0073688058 0.93185651
-0.85544187 0.0068320218 0.77217656
-0.85099018 0.006652887 0.64256322
-0.8519392 0.0063706529 0.53252316
-0.85380852 0.0062407991 0.43328893
-0.83980322 0.0059966943 0.33679563
-0.83996886 0.0057098037 0.25095019
-0.8413859 0.0057220198 0.16848512
-0.86225384 0.0085371118 0.84915853
-0.85138613 0.0081394883 0.7035042
-0.84667724 0.0079516405 0.58317351
-0.831631 0.0073820665 0.47191945
-0.84579962 0.0073656966 0.38352761
-0.83614498 0.0071406383 0.29239166
-0.8416943 0.007190668 0.20961356
-0.83903015 0.0070265769 0.1275226
-1.1051859 0.031542607 7.0289884
-1.1975449 0.028627867 5.7825241
-1.0236124 0.019507725 3.3201311
-0.96797955 0.016112113 2.340302
-0.90556115 0.013824602 1.7270075
-0.88136017 0.012547711 1.3672183
-0.87365174 0.011990136 1.1227211
-1.0929264 0.024815312 4.2464962
-0.98264617 0.019084843 2.7269118
-0.92672569 0.016242649 1.9802787
-0.89612353 0.014628579 1.5361557
-0.87641364 0.013706036 1.2354169
-0.8655625 0.01294401 1.0167363
-0.86700183 0.010395271 0.93185651
-0.85541278 0.0098180296 0.77217656
-0.85096174 0.0096233571 0.64256322
-0.85191172 0.0093444372 0.53252316
-0.85378158 0.0092211086 0.43328893
-0.83977717 0.0089281183 0.33679563
-0.83994389 0.0086418074 0.25095019
-0.84136081 0.0086589698 0.16848512
-0.86221874 0.011546887 0.84915853
-0.85135257 0.011111331 0.7035042
-0.84664434 0.010907047 0.58317351
-0.83160019 0.010284955 0.47191945
-0.84576875 0.010318043 0.38352761
-0.836115 0.010059286 0.29239166
-0.84166408 0.010128686 0.20961356
-0.83900046 0.0099552963 0.1275226
-1.105069 0.035400238 7.0289884
-1.1974378 0.032807902 5.7825241
-1.0220459 0.023046818 3.3153591
-0.96987063 0.019530442 2.3449044
-0.90550739 0.016985517 1.7270075
-0.881311 0.015624157 1.3672183
-0.8736046 0.015039677 1.1227211
-1.0928332 0.028630184 4.2464962
-0.98257351 0.022514801 2.7269118
-0.92448694 0.019431457 1.9757774
-0.89606702 0.017756544 1.5361557
-0.87636048 0.016765205 1.2354169
-0.86551207 0.015965307 1.0167363
-0.86696029 0.013421608 0.93185651
-0.85537332 0.012803917 0.77217656
-0.850923 0.012593709 0.64256322
-0.85187393 0.012318107 0.53252316
-0.85374421 0.012201306 0.43328893
-0.83974093 0.011859433 0.33679563
-0.83990854 0.011573706 0.25095019
-0.84132546 0.011595814 0.16848512
-0.8621732 0.014556522 0.84915853
-0.85130858 0.014083038 0.7035042
-0.84660107 0.01386232 0.58317351
-0.83155924 0.013187719 0.47191945
-0.84572756 0.013270264 0.38352761
-0.83607483 0.012977811 0.29239166
-0.84657508 0.013143499 0.21030425
-0.83896065 0.012883893 0.1275226
-1.1049387 0.03925743 7.0289884
-1.1973159 0.036987539 5.7825241
-1.0219592 0.026614282 3.3153591
-0.96979654 0.022915805 2.3449044
-0.9054426 0.020146225 1.7270075
-0.8812511 0.018700412 1.3672183
-0.87354678 0.018089034 1.1227211
-1.0927266 0.032444712 4.2464962
-0.98076391 0.02589871 2.7222192
-0.92441344 0.0226584 1.9757774
-0.89599961 0.020884294 1.5361557
-0.87629664 0.019824175 1.2354169
-0.86545104 0.018986411 1.0167363
-0.86690819 0.016447783 0.93185651
-0.85532343 0.015789649 0.77217656
-0.85087383 0.015563908 0.64256322
-0.85182571 0.015291627 0.53252316
-0.85369641 0.015181356 0.43328893
-0.84449077 0.014875163 0.33820567
-0.8447746 0.014590336 0.25188279
-0.84127986 0.014532517 0.16848512
-0.86211711 0.017565979 0.84915853
-0.85125422 0.017054573 0.7035042
-0.84654748 0.016817424 0.58317351
-0.83150816 0.016090322 0.47191945
-0.84567612 0.016222322 0.38352761
-0.8360244 0.015896177 0.29239166
-0.846524 0.016098518 0.21030425
-0.83891058 0.015812334 0.1275226
-1.104795 0.043114144 7.0289884
-1.1971796 0.041166726 5.7825241
-1.02186 0.030181423 3.3153591
-0.96971065 0.026300887 2.3449044
-0.90536672 0.023306685 1.7270075
-0.88118041 0.021776436 1.3672183
-0.87347829 0.021138171 1.1227211
-1.0926067 0.036258839 4.2464962
-0.97894263 0.02927026 2.7175262
-0.92432874 0.025885068 1.9757774
-0.89331412 0.023941699 1.5318898
-0.87320989 0.022804022 1.2314268
-0.86537951 0.022007285 1.0167363
-0.86684549 0.019473758 0.93185651
-0.85526305 0.018775187 0.77217656
-0.85081434 0.018533915 0.64256322
-0.84733844 0.018169872 0.53020442
-0.85363823 0.01816122 0.43328893
-0.84443372 0.017822895 0.33820567
-0.84471852 0.017539062 0.25188279
-0.84122401 0.017469043 0.16848512
-0.85831779 0.020485952 0.84583306
-0.85118949 0.020025901 0.7035042
-0.84648365 0.019772327 0.58317351
-0.83598417 0.019096486 0.4740175
-0.85033524 0.019281318 0.38517112
-0.83596385 0.01881435 0.29239166
-0.84646267 0.01905334 0.21030425
-0.83885026 0.018740581 0.1275226
-1.1046377 0.046970338 7.0289884
-1.1970285 0.045345414 5.7825241
-1.0217484 0.033748195 3.3153591
-0.9696129 0.029685646 2.3449044
-0.90527982 0.026466863 1.7270075
-0.88109905 0.024852198 1.3672183
-0.8733992 0.024187051 1.1227211
-1.0912173 0.040026248 4.2416568
-0.97883445 0.032687232 2.7175262
-0.92423272 0.029111419 1.9757774
-0.89322513 0.027059801 1.5318898
-0.87312496 0.025851952 1.2314268
-0.86529744 0.025027888 1.0167363
-0.86677223 0.022499492 0.93185651
-0.8551923 0.021760501 0.77217656
-0.85074443 0.0215037 0.64256322
-0.84726983 0.021127524 0.53020442
-0.85356963 0.021140862 0.43328893
-0.84436637 0.02077041 0.33820567
-0.84465212 0.020487571 0.25188279
-0.84115785 0.020405356 0.16848512
-0.85824108 0.023481915 0.84583306
-0.85111439 0.022996984 0.7035042
-0.8464095 0.022726985 0.58317351
-0.83591247 0.022014499 0.4740175
-0.85026276 0.022249423 0.38517112
-0.83589303 0.021732293 0.29239166
-0.84639102 0.022007929 0.21030425
-0.83877969 0.021668602 0.1275226
-1.1052432 0.050861884 7.0339274
-1.1968629 0.049523547 5.7825241
-1.0216243 0.03731456 3.3153591
-0.9695034 0.033070046 2.3449044
-0.90757561 0.029705288 1.7313966
-0.88100696 0.027927654 1.3672183
-0.87330943 0.027235635 1.1227211
-1.0910708 0.043835063 4.2416568
-0.98043889 0.03616764 2.7222192
-0.92412549 0.032337412 1.9757774
-0.89312524 0.030177573 1.5318898
-0.87302935 0.028899569 1.2314268
-0.86520475 0.028048187 1.0167363
-0.86668837 0.025524957 0.93185651
-0.85511118 0.024745546 0.77217656
-0.8506642 0.02447322 0.64256322
-0.84719092 0.02408492 0.53020442
-0.85349059 0.024120247 0.43328893
-0.84428871 0.023717673 0.33820567
-0.84457546 0.023435833 0.25188279
-0.8410815 0.023341421 0.16848512
-0.85815388 0.026477592 0.84583306
-0.85102892 0.025967788 0.7035042
-0.84632498 0.025681365 0.58317351
-0.83583051 0.024932245 0.4740175
-0.85017991 0.025217257 0.38517112
-0.83581209 0.024649972 0.29239166
-0.84630901 0.024962252 0.21030425
-0.83869892 0.024596358 0.1275226
-1.1050589 0.054719593 7.0339274
-1.1956657 0.053655241 5.7776289
-1.021488 0.040880464 3.3153591
-0.9713344 0.036527678 2.3495069
-0.90746641 0.032873135 1.7313966
-0.88090402 0.031002773 1.3672183
-0.87320906 0.030283889 1.1227211
-1.0909111 0.047643341 4.2416568
-0.98030668 0.039589785 2.7222192
-0.92618227 0.035646964 1.9802787
-0.89301449 0.033294979 1.5318898
-0.87292314 0.031946838 1.2314268
-0.86510158 0.031068146 1.0167363
-0.86659402 0.028550107 0.93185651
-0.85501957 0.02773029 0.77217656
-0.85057354 0.027442444 0.64256322
-0.84710169 0.02704202 0.53020442
-0.85340124 0.027099337 0.43328893
-0.84420079 0.026664644 0.33820567
-0.8444885 0.026383808 0.25188279
-0.84099489 0.026277201 0.16848512
-0.85805625 0.029472947 0.84583306
-0.85093307 0.028938275 0.7035042
-0.84623021 0.028635433 0.58317351
-0.84027439 0.028000951 0.47611555
-0.85008669 0.028184786 0.38517112
-0.83572096 0.027567351 0.29239166
-0.84621674 0.027916269 0.21030425
-0.84360123 0.027687712 0.12772413
-1.1048613 0.058576632 7.0339274
-1.195471 0.057828572 5.7776289
-1.0198478 0.044380762 3.3105872
-0.97120094 0.039918046 2.3495069
-0.9097392 0.036135864 1.7357856
-0.88360238 0.03418652 1.3713511
-0.87309802 0.033331774 1.1227211
-1.0919939 0.051510476 4.2464962
-0.98188651 0.04308733 2.7269118
-0.92605227 0.03887973 1.9802787
-0.89289278 0.036411978 1.5318898
-0.87280631 0.034993712 1.2314268
-0.86498785 0.034087725 1.0167363
-0.86648905 0.031574912 0.93185651
-0.85491759 0.030714696 0.77217656
-0.85047257 0.030411333 0.64256322
-0.84700215 0.029998792 0.53020442
-0.85330141 0.030078098 0.43328893
-0.84410256 0.029611291 0.33820567
-0.84439129 0.029331464 0.25188279
-0.8408981 0.029212661 0.16848512
-0.85794812 0.032467943 0.84583306
-0.85082692 0.031908412 0.7035042
-0.84612507 0.031589158 0.58317351
-0.84017152 0.030933887 0.47611555
-0.85470212 0.031325009 0.38681462
-0.83561963 0.030484393 0.29239166
-0.8461141 0.030869946 0.21030425
-0.84349948 0.030632259 0.12772413
-1.10465 0.06243296 7.0339274
-1.195262 0.062001191 5.7776289
-1.0196866 0.047940422 3.3105872
-0.96910393 0.043220665 2.3449044
-0.90960753 0.039311226 1.7357856
-0.88347763 0.037270658 1.3713511
-0.87617886 0.036512915 1.1265587
-1.0918075 0.055321932 4.2464962
-0.98345387 0.046596382 2.7316046
-0.92808557 0.042211149 1.9847798
-0.89276028 0.039528534 1.5318898
-0.87267888 0.038040161 1.2314268
-0.86486363 0.037106887 1.0167363
-0.86637354 0.03459933 0.93185651
-0.85480517 0.033698726 0.77217656
-0.85453945 0.033544011 0.64530468
-0.84689224 0.032955199 0.53020442
-0.8531912 0.033056494 0.43328893
-0.84878755 0.032742564 0.3396157
-0.84428376 0.032278761 0.25188279
-0.84079099 0.032147765 0.16848512
-0.85782957 0.035462543 0.84583306
-0.85071033 0.034878157 0.7035042
-0.84600967 0.03454249 0.58317351
-0.84005839 0.033866443 0.47611555
-0.85458761 0.034308285 0.38681462
-0.84036487 0.033595283 0.29356396
-0.84600121 0.033823248 0.21030425
-0.84338737 0.033576436 0.12772413
-1.1044253 0.066288531 7.0339274
-1.1950382 0.066173054 5.7776289
-1.019513 0.051499505 3.3105872
-0.96699584 0.046509132 2.340302
-0.90946478 0.042486109 1.7357856
-0.88334215 0.040354345 1.3713511
-0.87604606 0.039571129 1.1265587
-1.0916077 0.059132718 4.2464962
-0.98328519 0.050028995 2.7316046
-0.92793256 0.045450516 1.9847798
-0.89261681 0.042644609 1.5318898
-0.87254077 0.041086145 1.2314268
-0.86472887 0.040125597 1.0167363
-0.86624753 0.037623327 0.93185651
-0.85468233 0.036682349 0.77217656
-0.8544172 0.036526706 0.64530468
-0.84677207 0.035911206 0.53020442
-0.85770243 0.036230236 0.43516198
-0.8486681 0.035705186 0.3396157
-0.84416592 0.035225663 0.25188279
-0.84067363 0.035082478 0.16848512
-0.85770053 0.038456712 0.84583306
-0.85058343 0.037847478 0.7035042
-0.84588397 0.037495404 0.58317351
-0.83993512 0.036798589 0.47611555
-0.85446262 0.037291143 0.38681462
-0.84024251 0.036528502 0.29356396
-0.84587801 0.036776137 0.21030425
-0.84326506 0.036520202 0.12772413
-1.1041873 0.07014329 7.0339274
-1.1948 0.070344113 5.7776289
-1.0178365 0.054977231 3.3058152
-0.96487647 0.049783409 2.3356993
-0.906919 0.045540143 1.7313966
-0.88319588 0.043437537 1.3713511
-0.87590259 0.042628858 1.1265587
-1.0926495 0.063015349 4.2513356
-0.98310459 0.053460993 2.7316046
-0.92776823 0.048689328 1.9847798
-0.89246255 0.045760162 1.5318898
-0.872392 0.044131633 1.2314268
-0.86458349 0.04314382 1.0167363
-0.86611092 0.040646866 0.93185651
-0.85454905 0.039665524 0.77217656
-0.85428452 0.039508957 0.64530468
-0.84664154 0.03886677 0.53020442
-0.85757071 0.039223954 0.43516198
-0.84853828 0.038667373 0.3396157
-0.84403783 0.038172141 0.25188279
-0.84054607 0.038016763 0.16848512
-0.86129051 0.041630853 0.84915853
-0.85448343 0.041010264 0.70644736
-0.85005373 0.040653937 0.58570671
-0.83980155 0.039730284 0.47611555
-0.85432726 0.040273547 0.38681462
-0.84010988 0.03946127 0.29356396
-0.84574449 0.039728578 0.21030425
-0.84313244 0.039463524 0.12772413
-1.1031604 0.073945023 7.0289884
-1.1945472 0.074514315 5.7776289
-1.0176383 0.058529805 3.3058152
-0.96079552 0.052935768 2.3264942
-0.90675449 0.0487056 1.7313966
-0.88303894 0.046520203 1.3713511
-0.87574846 0.045686066 1.1265587
-1.0924228 0.066829026 4.2513356
-0.98118919 0.056792405 2.7269118
-0.92759264 0.051927548 1.9847798
-0.89229739 0.048875161 1.5318898
-0.87223268 0.047176581 1.2314268
-0.86442763 0.046161518 1.0167363
-0.86596376 0.043669909 0.93185651
-0.8544054 0.042648215 0.77217656
-0.85414135 0.042490728 0.64530468
-0.85092509 0.042040575 0.53252316
-0.85742861 0.042217195 0.43516198
-0.84839815 0.041629091 0.3396157
-0.84389943 0.041118149 0.25188279
-0.84040827 0.040950585 0.16848512
-0.86113995 0.044637065 0.84915853
-0.85433507 0.043992717 0.70644736
-0.84990668 0.043620929 0.58570671
-0.84419042 0.042891905 0.47821358
-0.85418147 0.043255463 0.38681462
-0.83996701 0.042393561 0.29356396
-0.84560061 0.042680535 0.21030425
-0.84298956 0.042406365 0.12772413
-1.1028956 0.077795319 7.0289884
-1.1942798 0.078683607 5.7776289
-1.0174278 0.062081669 3.3058152
-0.95865452 0.05617474 2.3218915
-0.90418786 0.051733438 1.7270075
-0.88006163 0.049444236 1.3672183
-0.87558365 0.048742723 1.1265587
-1.0921829 0.07064189 4.2513356
-0.98098505 0.060217049 2.7269118
-0.92523265 0.055035643 1.9802787
-0.89212132 0.051989559 1.5318898
-0.87206268 0.050220955 1.2314268
-0.86426127 0.049178652 1.0167363
-0.8658061 0.04669242 0.93185651
-0.85425133 0.045630388 0.77217656
-0.85398787 0.045471977 0.64530468
-0.85077316 0.0450106 0.53252316
-0.85264653 0.044965684 0.43328893
-0.84345722 0.044338405 0.33820567
-0.8486563 0.044319887 0.25281543
-0.84026015 0.043883905 0.16848512
-0.8609789 0.047642734 0.84915853
-0.85417628 0.046974633 0.70644736
-0.84974921 0.046587389 0.58570671
-0.84403557 0.045838419 0.47821358
-0.85402524 0.046236847 0.38681462
-0.83981395 0.045325335 0.29356396
-0.84544653 0.045631971 0.21030425
-0.84283638 0.045348689 0.12772413
-1.1018424 0.081587091 7.0240488
-1.1939979 0.082851946 5.7776289
-1.017205 0.065632775 3.3058152
-0.95845258 0.059520725 2.3218915
-0.90400183 0.054889329 1.7270075
-0.87988365 0.052515924 1.3672183
-0.87220848 0.051609248 1.1227211
-1.0906756 0.074368171 4.2464962
-0.97904676 0.063529 2.7222192
-0.92503488 0.058264975 1.9802787
-0.89193439 0.055103328 1.5318898
-0.87188208 0.053264711 1.2314268
-0.8640843 0.052195188 1.0167363
-0.86563784 0.049714364 0.93185651
-0.85408688 0.048612002 0.77217656
-0.8538239 0.048452675 0.64530468
-0.85061085 0.047980078 0.53252316
-0.85248441 0.0479417 0.43328893
-0.8432973 0.047282349 0.33820567
-0.8484965 0.047281981 0.25281543
-0.8401019 0.046816695 0.16848512
-0.86080736 0.050647818 0.84915853
-0.85400712 0.049955979 0.70644736
-0.84958142 0.049553283 0.58570671
-0.8438704 0.048784375 0.47821358
-0.85385865 0.049217671 0.38681462
-0.83965063 0.048256554 0.29356396
-0.84528208 0.048582852 0.21030425
-0.83768517 0.048004616 0.1275226
-1.1015509 0.085432738 7.0240488
-1.1937014 0.087019265 5.7776289
-1.018459 0.06928461 3.3105872
-0.96018851 0.062994108 2.3264942
-0.90380472 0.058044553 1.7270075
-0.87969494 0.055586968 1.3672183
-0.87202305 0.054653507 1.1227211
-1.0904094 0.078174889 4.2464962
-0.97881901 0.066946119 2.7222192
-0.92265379 0.061348945 1.9757774
-0.89173663 0.058216423 1.5318898
-0.87169081 0.056307822 1.2314268
-0.86389685 0.055211086 1.0167363
-0.86545902 0.052735701 0.93185651
-0.85391194 0.051593028 0.77217656
-0.85364962 0.051432781 0.64530468
-0.85043818 0.050948974 0.53252316
-0.85231185 0.050917134 0.43328893
-0.83833843 0.049940377 0.33679563
-0.84832627 0.050243497 0.25281543
-0.83993334 0.049748912 0.16848512
-0.86062533 0.05365229 0.84915853
-0.85382754 0.052936714 0.70644736
-0.84940326 0.052518573 0.58570671
-0.84369498 0.051729735 0.47821358
-0.85368168 0.052197892 0.38681462
-0.83947706 0.051187191 0.29356396
-0.84510738 0.051533144 0.21030425
-0.83751255 0.050928388 0.1275226
-1.101246 0.089277342 7.0240488
-1.1933904 0.09118554 5.7776289
-1.0182109 0.072839275 3.3105872
-0.96191174 0.066480324 2.3310966
-0.90598607 0.061361123 1.7313966
-0.87949556 0.058657341 1.3672183
-0.87182695 0.057697106 1.1227211
-1.0901299 0.081980653 4.2464962
-0.9785794 0.070362426 2.7222192
-0.92243397 0.064569227 1.9757774
-0.89152801 0.061328813 1.5318898
-0.86848277 0.059145305 1.2274369
-0.86369884 0.05822631 1.0167363
-0.86526966 0.055756394 0.93185651
-0.85761106 0.05482189 0.77531505
-0.85346484 0.054412261 0.64530468
-0.85025519 0.053917248 0.53252316
-0.85212886 0.053891946 0.43328893
-0.83815902 0.052866422 0.33679563
-0.84324312 0.052896816 0.25188279
-0.83975458 0.052680522 0.16848512
-0.8604328 0.056656107 0.84915853
-0.85363758 0.055916809 0.70644736
-0.84921479 0.055483222 0.58570671
-0.84350926 0.054674465 0.47821358
-0.85349429 0.05517748 0.38681462
-0.83929324 0.054117195 0.29356396
-0.8449223 0.054482799 0.21030425
-0.83732969 0.053851549 0.1275226
-1.1017019 0.093186557 7.0289884
-1.1940796 0.095431991 5.7825241
-1.0164618 0.07628113 3.3058152
-0.96167374 0.069837615 2.3310966
-0.90576637 0.064523228 1.7313966
-0.87928545 0.061726995 1.3672183
-0.87162024 0.060739994 1.1227211
-1.0885839 0.085686572 4.2416568
-0.97832781 0.073777877 2.7222192
-0.92003191 0.06762892 1.9712763
-0.88870728 0.064252168 1.5276239
-0.86827105 0.062176518 1.2274369
-0.86349034 0.06124083 1.0167363
-0.86506975 0.058776412 0.93185651
-0.85741442 0.057815172 0.77531505
-0.8532697 0.057391077 0.64530468
-0.85006177 0.056884859 0.53252316
-0.85193563 0.056866102 0.43328893
-0.83796942 0.055791825 0.33679563
-0.84305334 0.055839963 0.25188279
-0.83956558 0.055611495 0.16848512
-0.86022979 0.059659228 0.84915853
-0.85343719 0.058896221 0.70644736
-0.84901595 0.058447201 0.58570671
-0.84331328 0.057618525 0.47821358
-0.84858525 0.057835214 0.38517112
-0.83909923 0.057046551 0.29356396
-0.83978635 0.057095848 0.20961356
-0.83713657 0.056774039 0.1275226
-1.1013699 0.097031653 7.0289884
-1.1937393 0.099599525 5.7825241
-1.0161895 0.079828776 3.3058152
-0.96337211 0.073342584 2.3356993
-0.90553564 0.067684554 1.7313966
-0.87906468 0.064795896 1.3672183
-0.87140292 0.063782148 1.1227211
-1.0882782 0.089485914 4.2416568
-0.97806436 0.077192433 2.7222192
-0.91979027 0.070840016 1.9712763
-0.88847756 0.067353949 1.5276239
-0.86804867 0.065206975 1.2274369
-0.86327136 0.064254597 1.0167363
-0.86485928 0.061795708 0.93185651
-0.85720742 0.060807757 0.77531505
-0.85306418 0.060369194 0.64530468
-0.84985805 0.059851788 0.53252316
-0.8517319 0.059839565 0.43328893
-0.84255493 0.059052009 0.33820567
-0.84285325 0.058782425 0.25188279
-0.83936632 0.058541782 0.16848512
-0.86001635 0.062661633 0.84915853
-0.85322636 0.061874915 0.70644736
-0.84880674 0.061410461 0.58570671
-0.84310699 0.060561888 0.47821358
-0.84837818 0.06079698 0.38517112
-0.83889502 0.059975203 0.29356396
-0.83958191 0.060026899 0.20961356
-0.83693326 0.059695847 0.1275226
-1.1017982 0.10094666 7.0339274
-1.1943988 0.10385424 5.7874193
-1.0159045 0.083375454 3.3058152
-0.96311027 0.076704927 2.3356993
-0.90529382 0.070845053 1.7313966
-0.87883312 0.067864008 1.3672183
