# .PCD v0.7 - Point Cloud Data file format
VERSION 0.7
FIELDS x y z
SIZE 4 4 4
TYPE F F F
COUNT 1 1 1
WIDTH 1593
HEIGHT 1
VIEWPOINT 0 0 0 1 0 0 0
POINTS 1593
DATA ascii
0.018386869 4.5862513 2.4872715
0.065382801 17.033064 6.9701734
0.02934967 8.0113783 2.4447947
0.014440695 4.3571372 0.91870624
0.026118768 7.8780622 0.80020785
0.052736703 8.1728506 7.3604879
0.079807274 13.070163 9.6006784
0.026867179 4.5323696 2.7490413
0.06996768 12.93571 6.0674253
0.084644578 16.169048 5.7167144
0.022106959 4.3697939 1.1446664
0.067714661 13.380185 1.9584155
0.057540268 11.775023 0.56867379
0.11897329 4.7117476 29.961962
0.12845023 6.2468824 30.062849
0.14563911 9.280302 29.718746
0.079201095 7.3251376 10.831671
0.14944525 7.7222719 29.77446
0.057712924 4.4740839 7.3890176
0.075800851 6.5844173 7.2167387
0.062936582 7.3645062 7.3171396
0.071829356 8.9511881 7.3001661
0.10205336 12.997673 8.6065226
0.034462251 4.5950184 2.4919093
0.057314422 8.0112276 2.4447947
0.029683286 4.3619719 0.91963881
0.053618178 7.877923 0.80020785
0.084570765 8.5049057 7.6564574
0.12550777 13.077888 9.6065645
0.04309421 4.5753541 2.7743733
0.1151617 12.939925 6.0695233
0.03731868 4.3648291 1.1434941
0.11941706 13.96419 2.0399158
0.10429256 12.449179 0.59588045
0.13530777 4.7074203 29.937267
0.15025514 6.2463961 30.062849
0.17786059 9.2707834 29.690115
0.10485066 7.3304443 10.839937
0.17651504 7.7267294 29.793818
0.073458396 4.481678 7.4018149
0.098835178 6.5875025 7.2204137
0.088643119 7.3642421 7.3171396
0.10325374 8.9664516 7.3127203
0.14713848 12.97215 8.5900736
0.05079389 4.6214476 2.5058219
0.085227408 8.0061817 2.4433846
0.044959813 4.3667541 0.92057145
0.081065655 7.8727083 0.79976076
0.10999291 8.1872168 7.3737898
0.17163353 13.113746 9.6330528
0.05956598 4.6139703 2.7971718
0.160386 12.943983 6.0716214
0.05249602 4.3598123 1.1423218
0.17591295 14.607409 2.1297042
0.15521833 13.078182 0.62127334
0.15173891 4.7069192 29.937267
0.17205821 6.2458334 30.062849
0.20994966 9.2581673 29.651937
0.13033785 7.3244061 10.831671
0.20371716 7.7348623 29.827694
0.12195469 6.5938969 7.2277646
0.11434858 7.3638878 7.3171396
0.13425976 8.9465771 7.2970276
0.19260491 12.9841 8.5982981
0.067374617 4.652247 2.5220535
0.11317367 8.0058365 2.4433846
0.060405534 4.3813057 0.92336929
0.10854603 7.8723769 0.79976076
0.22415486 13.241585 11.876517
0.21807814 13.153481 9.6624842
0.075671375 4.6137342 2.7971718
0.20556796 12.943344 6.0716214
0.067789778 4.3644624 1.1434941
0.237593 15.294961 2.2257087
0.21122713 13.751933 0.64848006
0.16811262 4.7048078 29.927387
0.19335316 6.2289114 29.984526
0.2422654 9.2573776 29.651937
0.15638332 7.3464141 10.864735
0.14190145 6.8340063 8.260479
0.23067811 7.7328477 29.822855
0.14512005 6.6002097 7.2351151
0.14005265 7.3634439 7.3171396
0.16548833 8.9460545 7.2970276
0.23777346 12.974987 8.5928154
0.08417099 4.6829877 2.538285
0.14111857 8.0053921 2.4433846
0.075953402 4.395803 0.92616719
0.1360251 7.8719506 0.79976076
0.27068019 13.255653 11.889818
0.26374769 13.140517 9.6536551
0.21253274 10.681848 6.3638878
0.25092328 12.951624 6.0758176
0.40739027 21.218079 7.4752693
0.082931727 4.3593397 1.1423218
0.2719413 14.425444 0.67568666
0.18453443 4.7041922 29.927387
0.21449688 6.2108994 29.901308
0.18223535 7.3542633 10.877133
0.16606672 6.8462863 8.2758293
0.25766939 7.7319951 29.822855
0.16833094 6.6064405 7.2424645
0.16631703 7.3878679 7.3416719
0.19688606 8.9532051 7.3033047
0.28306314 12.974078 8.5928154
0.10127787 4.7180953 2.5568354
0.16906174 8.0048504 2.4433846
0.091909245 4.4249778 0.93176287
0.16339909 7.8664489 0.79931366
0.31891334 13.336747 11.962979
0.30847231 13.091025 9.6183376
0.24951562 10.668112 6.356288
0.29623508 12.955206 6.0779152
0.48220262 21.249575 7.486774
0.099461257 4.417336 1.1563896
0.33646712 15.058733 0.70128113
0.20092081 4.7027435 29.922449
0.23629184 6.2131653 29.915993
0.20846227 7.3732719 10.906064
0.19049732 6.8648891 8.2988539
0.28451863 7.7272801 29.808334
0.1916853 6.6159792 7.2534904
0.19256814 7.4050674 7.3591943
0.22853407 8.9680271 7.3158588
0.32824361 12.968832 8.5900736
0.55948192 22.570816 9.2103205
0.19688481 7.9994164 2.4419746
0.10735474 4.4246297 0.93176287
0.19085711 7.8658304 0.79931366
0.22603266 8.2483339 7.4303231
0.35307327 13.049462 9.5889053
0.28872225 10.740434 6.3993521
0.341575 12.95863 6.0800138
0.55489117 21.191116 7.467052
0.11563837 4.446116 1.1634235
0.21726336 4.7004614 29.912571
0.25776702 6.2072163 29.891518
0.23437729 7.3781252 10.91433
0.21455921 6.8673859 8.3026915
0.31133816 7.7224717 29.793818
0.15289934 4.5162053 7.4615388
0.21521838 6.6288233 7.2681913
0.2190465 7.4257379 7.3802214
0.37339088 12.963427 8.5873318
0.13257559 4.659709 2.5266912
0.63852751 22.577993 9.2140665
0.2248068 7.9986801 2.4419746
0.12402563 4.4684215 0.94015646
0.21817464 7.8601379 0.79886657
0.25586128 8.2810822 7.4602528
0.39837536 13.04007 9.5830193
0.32608068 10.735051 6.3968191
0.38694239 12.961895 6.0821118
0.63095993 21.25985 7.4917045
0.13287768 4.5039873 1.1774913
0.23366971 4.6996741 29.912571
0.27924931 6.2022099 29.871937
0.25963438 7.3632002 10.893665
0.23897476 6.8794088 8.3180418
0.33818266 7.7188268 29.784138
0.16807856 4.5000062 7.4359426
0.2384778 6.6314192 7.2718658
0.24555394 7.44275 7.3977447
0.42517698 13.09378 10.645761
0.41863939 12.962044 8.5873318
0.71674657 22.557093 9.2065744
0.2525745 7.9930515 2.4405644
0.14253795 4.5612488 0.95787632
0.24561031 7.8593283 0.79886657
0.28271246 8.2204332 7.4070449
0.44402885 13.042641 9.5859623
0.36209169 10.690764 6.3714871
0.43233675 12.965001 6.0842099
0.70829809 21.35191 7.5245748
0.14763688 4.4743481 1.1704574
0.25003186 4.6980538 29.907631
0.30065045 6.1961122 29.84746
0.28555316 7.3678727 10.901931
0.26249701 6.8657207 8.3026915
0.36476776 7.7100658 29.755102
0.183679 4.4967866 7.4316764
0.2622928 6.6474843 7.2902422
0.27231285 7.4632306 7.4187717
0.4710201 13.096106 10.6489
0.46373326 12.956325 8.5845909
0.16729981 4.7206488 2.5591543
0.28047392 7.9921212 2.4405644
0.15982343 4.599998 0.96533728
0.27287006 7.853447 0.79841954
0.48940176 13.036971 9.5830193
0.1680923 4.4991345 2.7313092
0.47792459 12.972484 6.0884061
0.78282583 21.349306 7.5245748
0.16130449 4.4203744 1.1575619
0.26656178 4.6994801 29.922449
0.32233003 6.1960421 29.852356
0.31162655 7.3752661 10.91433
0.39212534 7.7175331 29.788977
0.19902788 4.4883018 7.418879
0.28476766 6.6295929 7.2718658
0.29907519 7.480052 7.4362941
0.51734513 13.109938 10.661453
0.51207554 13.034013 8.6366787
0.30799994 7.9815063 2.4377444
0.1779443 4.6534076 0.97559601
0.30028206 7.8524466 0.79841954
0.53490633 13.035183 9.5830193
0.43812594 10.722433 6.3917522
0.52320409 12.970737 6.0884061
0.85639656 21.322853 7.5163569
0.17653924 4.4149275 1.1563896
0.28235653 4.6884379 29.858238
0.34412572 6.1979289 29.867043
0.33685458 7.3628883 10.897798
0.41906217 7.7161174 29.788977
0.2139457 4.4719491 7.3932829
0.32688791 7.5181537 7.4748445
0.56260306 13.096387 10.652038
0.55917829 13.069745 8.6613522
0.1983736 4.6751065 2.5359662
0.3366656 7.9995546 2.4433846
0.19643994 4.7067451 0.9858548
0.32769039 7.8513503 0.79841954
0.37078857 8.2617817 7.4469504
0.58022451 13.0292 9.5800762
0.19949783 4.4978514 2.7313092
0.56807977 12.959763 6.0842099
0.19110447 4.3948598 1.1517003
1.2508228 28.764 4.1078115
1.0317986 23.823013 1.0555725
0.29911622 4.6936269 29.897753
0.36593854 6.1997395 29.881727
0.50162077 9.2648907 29.709202
0.44679222 7.7284112 29.842211
0.22861806 4.4529428 7.3634214
0.35195756 7.4920306 7.4503126
0.60849512 13.09823 10.655176
0.60460347 13.063537 8.6586103
0.21408179 4.6611109 2.5290098
0.36830077 8.0797958 2.4673553
0.35531974 7.8551335 0.79886657
0.39962533 8.260437 7.4469504
0.62550741 13.023057 9.5771322
0.2176699 4.5487981 2.7617073
0.61417264 12.975835 6.0926023
0.20781296 4.4232984 1.1587343
1.3542417 28.823769 4.1167908
1.1147166 23.814278 1.0553709
0.31581125 4.6972055 29.927387
0.38776815 6.2014728 29.896412
0.53318489 9.249671 29.666254
0.7772705 14.734103 21.742655
0.47445929 7.7380958 29.885765
0.24444605 4.4573259 7.3719535
0.30366451 5.6081562 7.5117254
0.37846711 7.4978805 7.4573216
0.65421277 13.096026 10.655176
0.65040797 13.065523 8.6613522
0.23035081 4.6603351 2.5290098
0.3827371 7.8538451 0.79886657
0.67075455 13.016758 9.5741901
0.23509456 4.5781469 2.7794394
1.5357035 30.211349 14.071495
0.23599526 4.6749763 1.2196947
1.444111 28.606195 4.0870914
0.33258975 4.7014999 29.961962
0.4096815 6.2041454 29.915993
0.56683594 9.2701025 29.737833
0.8291716 14.73973 21.755054
0.50252473 7.7526989 29.948679
0.32358566 5.6130781 7.5197048
0.40406057 7.4858303 7.4468079
0.699507 13.085891 10.6489
0.69289643 13.004716 8.6229706
0.24708529 4.6683493 2.5336475
0.45190355 8.5943956 2.6196387
0.24059258 4.606319 0.96720243
0.41040957 7.8574343 0.79931366
0.71552116 13.00223 9.565361
0.25107384 4.5772982 2.7794394
1.6421365 30.223932 14.079887
0.25440863 4.7129526 1.2290733
1.5452913 28.625706 4.0905447
0.34922937 4.7034097 29.98172
0.43133551 6.2026772 29.915993
0.59919113 9.2680674 29.737833
0.88044995 14.733936 21.750921
0.52992654 7.7559137 29.968037
0.34188929 5.5908608 7.4917746
0.42998385 7.4808135 7.4433031
0.74518096 13.08337 10.6489
0.73544252 12.952122 8.5900736
0.26412818 4.6807275 2.5406039
1.7066847 30.33667 12.364509
0.47948328 8.5496597 2.6069484
0.25667018 4.6054511 0.96720243
0.43783465 7.8559542 0.79931366
1.4731266 25.017534 22.401726
0.76161158 13.011758 9.5741901
0.26705006 4.5763936 2.7794394
1.7476276 30.218018 14.079887
0.52079731 9.0599785 2.2794697
1.6466253 28.644857 4.0939984
0.36546433 4.6998386 29.966904
0.45261317 6.1960568 29.891518
0.63285893 9.2852802 29.79987
0.93240857 14.739198 21.763321
0.55735683 7.7590318 29.987396
0.36081961 5.5806131 7.479805
0.45479161 7.4579096 7.422276
0.54113954 8.9507027 7.3127203
0.77989447 12.936954 8.5818491
0.28020033 4.675355 2.538285
1.8117391 30.316641 12.358889
0.50504428 8.4761057 2.585798
0.27535889 4.6486602 0.97559601
0.46495989 7.8494067 0.79886657
1.5518428 24.874359 22.278681
0.80652589 13.000952 9.5683031
0.28222454 4.5625262 2.7718401
1.8528199 30.207205 14.07779
1.8992141 31.052183 10.916778
0.54650158 8.9610729 2.2560234
1.7478101 28.658705 4.0967607
0.38161567 4.695436 29.947145
0.47408316 6.1924086 29.881727
0.66633403 9.2979031 29.847589
0.98366481 14.733046 21.759188
0.58405966 7.7520256 29.968037
0.38029739 5.5793195 7.479805
0.47990373 7.4420409 7.4082575
0.5693984 8.9021473 7.2750587
0.82424945 12.921633 8.5736246
0.29764047 4.6920319 2.5475602
1.9175528 30.310131 12.358889
0.53523248 8.4838676 2.588618
0.2918916 4.6525731 0.9765287
0.49266842 7.852706 0.79931366
1.6440622 24.950756 22.351843
0.85243148 13.006124 9.5741901
0.29730543 4.5486083 2.7642405
2.0088139 31.064217 10.923351
0.57089621 8.8523989 2.2302325
1.8478371 28.65243 4.0967607
0.39774069 4.690979 29.927387
0.49553323 6.1886859 29.871937
0.6971069 9.2731934 29.776009
1.035284 14.732329 21.763321
0.61012727 7.7374082 29.919641
1.4669864 21.742779 17.653934
0.86934936 12.918677 8.5736246
0.31520051 4.7086439 2.5568354
2.0242701 30.317135 12.364509
0.56484348 8.4819469 2.588618
0.30748096 4.6417232 0.97466338
0.53093922 8.0149183 0.8140673
0.31288502 4.543242 2.7617073
2.1252654 31.174795 10.964439
0.31952745 4.6992431 1.2267287
1.944146 28.591459 4.0891638
0.41377085 4.6856918 29.902693
0.51670849 6.1818452 29.84746
0.72806668 9.2528458 29.718746
1.0867032 14.728626 21.763321
0.63630646 7.7252097 29.880928
1.5390159 21.68317 17.609995
0.91561991 12.932248 8.5845909
0.82850283 11.760002 6.2576404
2.1297593 30.305258 12.362636
0.5981375 8.5325613 2.6041284
0.32333994 4.6357212 0.97373074
0.55960631 8.0229511 0.81496137
2.3519418 32.415112 23.748449
0.328742 4.5421224 2.7617073
2.2384617 31.228416 10.985805
2.32342 32.493092 7.9476247
0.43047994 4.6880879 29.927387
0.53872591 6.1850758 29.871937
0.75901538 9.2338829 29.666254
1.138109 14.724743 21.763321
0.66176248 7.7054086 29.813175
1.6071775 21.576746 17.528397
0.96695399 13.012373 8.6394205
0.86824083 11.739367 6.2483649
2.2358727 30.302265 12.364509
0.63636994 8.6452408 2.637969
0.58651662 8.0060492 0.81362021
2.4687564 32.45507 23.783768
0.80652076 10.627538 6.3486886
2.3453314 31.192162 10.975944
2.4397364 32.52356 7.9570036
2.553036 34.03389 4.852365
0.44698939 4.6881032 29.937267
0.56068033 6.1872139 29.891518
0.79188049 9.2386131 29.690115
1.189501 14.72068 21.763321
0.68899119 7.7068081 29.827694
1.013343 13.021424 8.647644
0.90613413 11.696515 6.2274957
2.3416336 30.294273 12.364509
0.6654371 8.6286182 2.6337392
2.555717 33.290611 6.430491
2.5813096 32.294731 28.936331
0.84361291 10.624658 6.3486886
2.4541981 31.183784 10.975944
2.5502059 32.476082 7.9476247
2.673372 34.044521 4.8551278
0.4635042 4.6880608 29.947145
0.58256072 6.1882596 29.906202
0.82598215 9.256608 29.756922
1.2408787 14.716438 21.763321
0.71553975 7.7006011 29.813175
1.059129 13.021975 8.6503859
0.94659942 11.688866 6.2251768
2.4477391 30.290533 12.366381
2.6711211 33.271694 6.4286261
2.7987943 34.861965 3.2327647
2.6980596 32.333897 28.979565
0.87926996 10.604465 6.3385558
2.4880066 30.19796 14.094573
2.5645828 31.193853 10.982518
3.1146319 37.965317 9.2782049
2.8067694 34.212658 4.8799925
2.9250646 35.731056 1.5398512
0.48002416 4.6879606 29.957024
0.6045543 6.1902423 29.925785
0.85842657 9.2551556 29.761694
1.2924873 14.714821 21.767452
0.74241555 7.6980562 29.813175
1.1042243 13.014032 8.647644
0.98888743 11.703147 6.2344522
2.5542374 30.291046 12.370128
2.788065 33.271957 6.430491
2.9233792 34.886723 3.2358944
2.8125269 32.34288 28.996191
0.9173947 10.614216 6.3461556
2.59146 30.166483 14.084085
2.677084 31.227053 10.997309
3.2487941 37.973587 9.2828941
2.9662793 34.671387 4.9456067
3.0506217 35.730587 1.5402544
0.49654907 4.6878018 29.966904
0.62646616 6.1911335 29.94047
0.89087105 9.2535887 29.766466
1.3438437 14.710219 21.767452
0.76878196 7.6904144 29.793818
3.396816 38.363491 31.136744
1.1489087 13.001767 8.6421614
2.6607683 30.29118 12.373873
2.7812605 31.72636 9.4512482
2.9024799 33.242451 6.4267612
3.0473046 34.901112 3.2381299
2.9233887 32.310551 28.976238
0.9583016 10.653882 6.3714871
2.6967449 30.157255 14.084085
2.76844 31.019974 10.928282
3.3787394 37.932964 9.2758608
3.1096935 34.91238 4.9808316
3.1726716 35.689857 1.5390451
0.51316321 4.6883569 29.98172
0.64870989 6.1949849 29.969841
0.92509389 9.2697306 29.828501
1.3951838 14.705439 21.767452
3.536061 38.409538 31.183821
1.1939039 12.993516 8.6394205
2.7677536 30.295557 12.379492
2.8932958 31.730789 9.4554777
3.020277 33.251682 6.430491
3.1659603 34.855545 3.2350004
3.0941615 32.917236 29.528271
0.99949664 10.693394 6.3968191
2.8019967 30.147657 14.084085
2.8762667 31.005417 10.926638
3.2981999 35.621235 5.0816708
3.3041294 35.753185 1.5420681
0.52978742 4.6888533 29.996536
0.67087859 6.1977444 29.994318
0.9572922 9.2649603 29.823729
1.4462311 14.697679 21.763321
0.82245201 7.6848602 29.793818
3.6701138 38.396965 31.183821
1.2384582 12.980943 8.6339369
1.1273152 11.859726 6.3225665
2.8734879 30.285711 12.379492
3.0049436 31.730045 9.4582977
3.1363289 33.240936 6.430491
3.2890129 34.859154 3.2363415
1.0430599 10.754199 6.4348164
2.906343 30.128654 14.079887
2.984026 30.99049 10.924995
3.1310189 32.576614 7.9839664
3.4561589 35.959488 5.1307092
3.4260485 35.711597 1.540859
0.54669124 4.6916065 30.026173
0.69318753 6.201436 30.023689
0.99089617 9.2734375 29.861904
1.4975268 14.692541 21.763321
0.85134447 7.7006831 29.866409
3.8060415 38.403286 31.199514
4.8632083 49.157452 32.470985
1.1682719 11.851311 6.3202477
2.9791873 30.275497 12.379492
3.116153 31.72414 9.4597073
3.254735 33.25423 6.4351544
3.4106741 34.847462 3.2363415
3.5371034 35.004871 31.417154
1.0810239 10.754783 6.4373498
3.005172 30.055101 14.050514
3.0921848 30.979885 10.924995
3.2331476 32.449406 7.9558306
3.5516732 35.709362 1.5412619
0.56306463 4.6896691 30.026173
0.71541375 6.2040362 30.048164
1.0208035 9.2476664 29.790325
1.5488043 14.687224 21.763321
0.87836212 7.6989131 29.871248
3.9404681 38.393639 31.20265
5.0339174 49.131855 32.4655
1.2096336 11.84716 6.3202477
3.0777986 30.195732 12.351397
3.226872 31.71307 9.4597073
3.3683162 33.218231 6.430491
3.5327961 34.840298 3.2367887
3.6592715 34.99231 31.417154
1.1185585 10.750943 6.4373498
3.1044581 29.990259 14.025339
3.2007909 30.973597 10.926638
3.3458984 32.433086 7.954658
3.5155354 34.077412 4.8703227
3.6763003 35.696747 1.5412619
0.57904977 4.6845908 30.006416
0.73706549 6.2015009 30.048164
1.0512187 9.2277317 29.737833
1.5997579 14.67893 21.759188
0.905231 7.6958003 29.871248
4.0761061 38.39513 31.215204
5.2031856 49.093197 32.451794
1.2537727 11.869298 6.3341608
3.1831827 30.184805 12.351397
3.3390582 31.715925 9.4639378
3.4842486 33.206272 6.430491
3.6554294 34.837662 3.2376828
3.7842042 35.005306 31.440434
1.1556184 10.742686 6.4348164
3.1994631 29.888985 13.983377
3.2978501 30.858936 10.890481
3.4616694 32.445377 7.9605203
3.6344664 34.064934 4.8703227
3.8008828 35.683697 1.5412619
0.59510428 4.6802282 29.991598
0.75907946 6.2019224 30.062849
1.0820299 9.2121458 29.699657
1.6509871 14.673257 21.759188
0.9316352 7.6888504 29.856731
1.0535779 9.3053284 10.230374
4.2109547 38.388409 31.221483
5.3767967 49.095512 32.4655
1.2951967 11.86485 6.3341608
3.2779799 30.076727 12.312063
3.4367745 31.584852 9.4286871
3.6022577 33.21344 6.4342213
3.7770131 34.824688 3.2376828
3.905544 34.984467 31.433783
1.1926343 10.734303 6.4322834
3.2908063 29.760345 13.928827
3.4029572 30.823771 10.882264
3.567981 32.370289 7.9452806
3.7506399 34.027424 4.866869
3.9281518 35.695042 1.5422696
0.61032951 4.6696482 29.937267
0.78072357 6.199235 30.062849
1.1143591 9.209796 29.70443
1.7021964 14.667405 21.759188
0.95784634 7.680562 29.837372
1.0821213 9.2679205 10.193622
4.3462434 38.385082 31.230898
5.5481396 49.076447 32.4655
3.3751721 29.996002 12.283968
3.5427208 31.534527 9.4174061
3.7099726 33.127445 6.4202328
3.9029851 34.850883 3.2412593
4.0297751 34.989166 31.450411
1.2300967 10.730075 6.4322834
3.4327471 30.082365 14.084085
3.4982362 30.703791 10.844462
3.6765573 32.319 7.9359016
3.8682759 34.004288 4.8654881
4.0510354 35.666222 1.5416651
0.62859124 4.6821203 30.031113
0.80078876 6.1843548 30.004108
1.147792 9.216218 29.737833
1.753719 14.664168 21.763321
0.98513043 7.680912 29.851891
1.1148707 9.2674532 10.197297
1.1549834 9.8471432 9.8228903
4.4806571 38.373539 31.234037
5.7203832 49.06509 32.470985
3.5322351 30.389076 16.100946
3.4868047 30.043903 12.308317
3.6450443 31.455254 9.397666
3.8233311 33.094772 6.416502
4.0246134 34.837048 3.2412593
4.1532059 34.986008 31.460388
3.5987802 30.635115 10.824741
3.777458 32.20459 7.911283
3.9736803 33.877453 4.8496022
4.1772523 35.666752 1.5422696
0.64641672 4.6906738 30.100264
0.82143116 6.1744566 29.969841
1.1786278 9.2017918 29.70443
1.8048959 14.657957 21.763321
1.0127573 7.6836572 29.876087
1.1927719 9.871376 9.8509274
4.6150432 38.36153 31.237173
5.8931131 49.057278 32.47921
3.6388183 30.38096 16.103266
3.6153288 30.229483 12.388858
3.7451518 31.361366 9.3736954
3.924891 32.964153 6.3941188
4.1279407 34.669491 3.2274001
4.2771173 34.986126 31.47369
3.7771749 31.213049 11.031822
3.8735232 32.056095 7.8784585
4.0800295 33.765053 4.8357887
4.2915535 35.567635 1.5388436
0.66180706 4.6814651 30.055809
0.84187627 6.1634808 29.930679
1.2091823 9.1857815 29.666254
1.8564043 14.654359 21.767452
1.039572 7.6800752 29.876087
3.9801295 31.243231 34.221848
4.7489219 38.345184 31.237173
6.0478969 48.903614 32.391483
3.7480981 30.394451 16.117178
3.7383912 30.359314 12.446921
3.8903127 31.638535 9.4597073
4.0297713 32.867367 6.3782644
4.2434802 34.610382 3.2233763
4.401545 34.989502 31.490316
3.9217093 31.485516 11.132076
4.0009942 32.167786 7.9089379
4.1807518 33.613003 4.8164492
4.4150653 35.547478 1.538642
0.6781444 4.6791263 30.055809
0.86253756 6.1544547 29.901308
1.2432392 9.1962967 29.713974
1.9079096 14.650579 21.771585
1.0679309 7.6876044 29.919641
4.0869637 31.212339 34.203472
4.883234 38.332237 31.240313
3.8524995 30.368 16.110222
3.8466728 30.364475 12.454413
4.0260148 31.824648 9.5189285
4.19243 33.233242 6.4510088
4.3518014 34.496548 3.2144349
4.5236545 34.973927 31.490316
3.9847889 31.106293 11.003883
4.1354604 32.327194 7.9511414
4.3143954 33.725918 4.8344073
4.5226622 35.403004 1.5334022
0.6940167 4.6736565 30.036053
0.8837257 6.1493907 29.891518
1.2804619 9.2288647 29.833273
1.9594111 14.64662 21.775719
1.0963551 7.6950297 29.963196
4.1954384 31.194523 34.199795
3.8807647 29.517523 29.336203
5.0205469 38.341976 31.262281
6.0795803 46.49276 30.826105
3.9590528 30.358761 16.112541
3.9532399 30.355461 12.456287
4.1395535 31.829428 9.5245695
4.323575 33.33532 6.473392
4.47155 34.476204 3.2139876
4.6412816 34.92461 31.460388
4.1247807 31.330965 11.087703
4.2292709 32.167988 7.9159722
4.4320951 33.710655 4.8344073
4.6280046 35.248302 1.5277594
0.71917504 4.6690645 30.031113
0.91713428 6.1455264 29.896412
1.3341196 9.2363434 29.880993
2.0437367 14.635092 21.775719
1.1463487 7.6991782 30.006752
4.4036565 31.176079 34.210819
4.0144787 29.344864 29.185507
5.2305536 38.333534 31.277975
6.3338628 46.479897 30.839811
4.123251 30.336895 16.112541
4.1233387 30.337503 12.45816
4.319838 31.824825 9.5302095
4.5154996 33.309868 6.473392
4.7443781 34.9524 3.2595894
5.8558335 42.200993 31.106352
4.3522367 31.486105 11.151799
4.6596413 33.709949 4.838551
4.8931332 35.399094 1.5352161
0.73441255 4.6651196 30.021235
0.93766218 6.1434579 29.901308
1.3616033 9.2217693 29.847589
2.0871508 14.628963 21.775719
1.1666634 7.7062974 30.045467
4.1139131 29.309483 29.16448
5.3603377 38.335247 31.293667
4.2244401 30.32744 16.114859
4.2205429 30.338177 12.463779
4.4197974 31.811098 9.5302095
4.6163344 33.310917 6.4761896
4.8740945 35.170864 3.2806022
4.4306302 31.248827 28.19142
5.9561071 42.113483 31.053373
4.4216933 31.462122 11.146869
4.7384934 33.758965 4.8468394
4.9687147 35.444057 1.5374329
0.75081587 4.6632943 30.026173
0.95910114 6.1401467 29.901308
1.3913298 9.2007256 29.795097
2.1377954 14.618804 21.771585
1.1941338 7.705904 30.059986
5.4968829 38.335567 31.309359
6.3774133 44.531677 29.578737
4.3309031 30.316895 16.117178
4.3277264 30.332436 12.467525
4.5321651 31.804974 9.5330286
4.7346568 33.309189 6.4789877
5.0080476 35.232521 3.2877557
4.5343108 31.196222 28.158165
6.0526147 41.744419 30.797321
4.6240172 31.930756 19.044981
4.5321641 31.45117 11.148513
4.8513665 33.707905 4.8420048
5.0966725 35.456169 1.538642
0.7655744 4.6514449 29.966904
0.98068911 6.1377668 29.906202
2.1883948 14.60847 21.767452
1.218663 7.6867919 30.001913
4.6970134 31.205233 34.288002
5.6340609 38.339252 31.32819
6.5328193 44.509144 29.578737
4.4379854 30.310358 16.121815
4.4349217 30.326319 12.471272
4.6445441 31.798452 9.5358496
4.8516073 33.297325 6.4799204
5.6587529 38.836861 3.6163588
5.2090797 34.98035 31.580107
4.7518992 32.025291 19.110844
4.6419215 31.43516 11.148513
4.9740577 33.72506 4.8468394
5.2247748 35.467815 1.5398512
0.77808708 4.64149 29.917509
0.99905962 6.1358356 29.911098
1.4521123 9.2003956 29.823729
2.2291808 14.602303 21.767452
1.2383826 7.6810927 29.992233
4.7742739 31.200365 34.295349
4.4084711 29.288265 29.185507
5.7500997 38.337761 31.340744
6.6570864 44.490726 29.578737
4.5239186 30.30661 16.126453
4.5216427 30.327574 12.476891
4.7347369 31.794847 9.5386696
4.9518266 33.292496 6.4817853
5.7459617 38.678051 3.6033933
5.2928057 34.914913 31.533548
6.1128783 40.419777 29.849623
4.8325052 31.991425 19.098177
4.722096 31.408886 11.143581
4.8959904 32.60421 8.0425825
5.0586562 33.687439 4.8433862
5.3257627 35.508362 1.5420681
0.79725891 4.6366587 29.907631
1.0249203 6.1326013 29.915993
1.4906381 9.194232 29.823729
2.2924371 14.589657 21.763321
1.2700341 7.647892 29.885765
4.540175 29.361967 29.276627
5.9092865 38.348999 31.368992
6.8414817 44.450058 29.570513
4.6521716 30.296152 16.13109
4.6500435 30.31753 12.480636
4.8693299 31.78422 9.5414896
5.0919809 33.276321 6.482718
5.9402828 38.819984 3.6185942
5.4552236 34.916355 31.556828
6.2962341 40.391621 29.849623
4.9895649 32.045837 19.143774
4.8610344 31.292112 11.110711
5.0448318 32.512653 8.0261698
5.2209444 33.647633 4.8413138
5.5053463 35.521408 1.5436803
0.81263024 4.6339893 29.907631
1.0457647 6.1321797 29.930679
1.5167307 9.1627302 29.737833
2.3412516 14.584753 21.767452
1.2927953 7.6364284 29.856731
4.656014 29.430477 29.360735
6.0431132 38.328136 31.368992
4.7592721 30.288483 16.135729
4.7572813 30.310274 12.484383
4.9824772 31.781248 9.5457201
5.2030602 33.264107 6.4836512
6.065134 38.775471 3.6163588
5.5733356 34.912827 31.570129
6.4295068 40.366528 29.84668
5.0849681 31.961002 19.103245
4.7672415 30.065371 14.159615
4.9065809 30.979053 11.005527
5.1511507 32.559956 8.0414104
5.3215299 33.636887 4.8420048
5.6177349 35.549335 1.5454942
0.82989639 4.6372433 29.947145
1.0661154 6.1224732 29.901308
1.54995 9.1647396 29.761694
2.3921475 14.576491 21.767452
1.3183728 7.6256762 29.832533
6.1750073 38.295277 31.359573
4.866375 30.28043 16.140366
4.8645239 30.302637 12.488129
5.0949025 31.773132 9.5485392
5.3206944 33.25544 6.4855161
6.2051692 38.783566 3.6190412
4.8356805 29.627277 26.817989
6.5593276 40.27602 29.796646
5.1965022 31.943058 19.103245
4.8692551 30.030626 14.151222
5.014688 30.961737 11.005527
5.2608929 32.51778 8.0355482
5.4389119 33.618107 4.8420048
5.748167 35.568958 1.5471064
0.84733468 4.6411972 29.991598
1.087124 6.1167102 29.891518
1.5829477 9.1651564 29.780781
2.4439454 14.573603 21.775719
1.3449832 7.6210275 29.832533
4.9835505 30.136135 30.096691
6.3054805 38.254292 31.343884
7.6313 46.348145 30.880934
4.9734802 30.272003 16.145004
4.9717712 30.294619 12.491874
5.2073331 31.764624 9.5513601
5.4375381 33.241516 6.4864488
6.3429227 38.776413 3.6203823
4.9310827 29.562338 26.774757
4.9829555 30.067171 14.176397
5.1882906 31.340038 11.145225
5.3220301 32.18272 7.9581761
5.5618834 33.633114 4.8468394
5.8788052 35.588112 1.5487186
0.86353028 4.6382113 29.991598
1.107015 6.1048627 29.852356
1.6125976 9.1463451 29.737833
2.4952767 14.567758 21.779852
1.3722459 7.619998 29.847052
2.461493 14.568972 14.599586
6.4415603 38.247402 31.356438
7.8006701 46.366585 30.911091
5.080586 30.263193 16.149641
5.0790234 30.286226 12.495621
5.3205581 31.760445 9.5555897
5.5559692 33.236866 6.4892464
5.0091581 29.397718 26.641739
7.1554093 42.08218 31.165216
5.7788715 34.022465 20.364767
5.0719681 29.955624 14.132339
5.2905688 31.279835 11.130434
5.4464822 32.235836 7.97576
5.6833768 33.637913 4.8502932
6.0096464 35.606785 1.5503309
0.87913573 4.6321149 29.971842
1.129059 6.1049662 29.871937
1.6466292 9.1524134 29.776009
2.5470819 14.564501 21.788118
1.3990635 7.6163979 29.851891
2.5171843 14.588405 14.627623
6.5855865 38.286057 31.406651
7.9709702 46.388523 30.943989
5.1876907 30.254009 16.15428
5.1862755 30.277451 12.499366
5.4330082 31.751137 9.5584097
5.6736069 33.226952 6.4911113
5.0707831 29.144627 26.428904
7.3029513 42.060928 31.168158
5.1819153 29.969044 14.147025
5.3997235 31.261175 11.130434
5.5589733 32.216625 7.97576
5.8041282 33.63739 4.853056
6.1406903 35.624981 1.5519432
0.89500421 4.6274924 29.961962
1.1513059 6.1059909 29.896412
1.6793755 9.1510143 29.790325
2.5984006 14.558292 21.792252
1.4261041 7.6139383 29.861568
4.8268189 27.4025 27.42272
6.7218823 38.278168 31.419205
8.1328468 46.36042 30.943989
5.2947931 30.244442 16.158916
5.2943287 30.272863 12.504987
5.5462847 31.746157 9.5626402
5.7929311 33.226299 6.4948421
5.1359262 28.920881 26.242678
7.4504318 42.039162 31.171101
5.6104259 31.689106 18.996849
5.2880731 29.959713 14.151222
5.5252123 31.335146 11.163303
5.6595912 32.130009 7.9593477
5.9258051 33.641308 4.8565087
6.2719326 35.642685 1.5535554
0.9110015 4.6235776 29.957024
1.1733816 6.1059341 29.915993
1.7129557 9.1539001 29.818956
2.6497068 14.551903 21.796383
1.4531444 7.6113834 29.871248
2.6189685 14.570476 14.627623
8.3012581 46.36879 30.96866
5.4026709 30.238855 16.165873
5.4015975 30.263327 12.508732
5.6587496 31.736048 9.5654602
5.9105988 33.215553 6.4967074
7.5992885 42.02483 31.17993
5.7210073 31.669327 18.996849
5.3942285 29.950003 14.155417
5.6169982 31.218069 11.12879
5.7717113 32.110054 7.9593477
6.0309334 33.552181 4.8468394
6.402492 35.654999 1.5549661
0.92698234 4.6196074 29.952084
1.1952751 6.1047988 29.930679
1.7465765 9.1566629 29.847589
2.7010002 14.545331 21.800518
1.4801843 7.6087322 29.880928
2.6633813 14.526168 14.592578
4.1953945 22.949345 18.893625
8.4660692 46.355984 30.979628
5.5121636 30.241606 16.177467
5.5096946 30.257969 12.514351
5.7720695 31.730257 9.5696898
6.0308933 33.218884 6.5013704
7.7510681 42.025871 31.200533
5.8369875 31.678843 19.014582
5.5012007 29.944384 14.161711
5.7182631 31.156467 11.113997
5.8828855 32.084938 7.9581761
6.5332127 35.666832 1.5563767
0.94294661 4.6155829 29.947145
1.2171751 6.1035857 29.945366
1.7842252 9.1798162 29.943029
2.7522798 14.538579 21.804649
1.5072236 7.6059852 29.890606
4.3332562 23.244497 19.14784
8.6324244 46.350819 30.996077
5.6152639 30.209114 16.170511
5.6178198 30.252224 12.51997
5.8854189 31.724068 9.5739202
6.1432347 33.178307 6.4976397
6.4065056 34.600163 3.2519891
5.7717123 30.634073 27.845568
7.9007063 42.01445 31.212305
5.9467354 31.654037 19.012051
5.6056929 29.924997 14.161711
5.8035312 31.010998 11.069624
5.984127 32.006866 7.944108
6.6640949 35.678185 1.5577874
0.95905221 4.6122632 29.947145
1.239081 6.1022925 29.960051
1.8220564 9.202817 30.038469
2.803545 14.531645 21.808783
1.5345103 7.6043744 29.905125
2.6545672 13.929191 14.014327
4.4441619 23.386007 19.276516
8.797286 46.336834 31.00704
5.7268357 30.250652 12.527462
6.0050359 31.750469 9.5880213
6.2535443 33.127701 6.492044
6.5272436 34.577587 3.2519891
5.8969169 30.709078 27.932032
8.0511208 42.006466 31.227022
6.0612459 31.654257 19.024715
5.7126703 29.918625 14.168007
5.9143991 31.004465 11.074554
6.0958157 31.985785 7.944108
6.3819537 33.487186 4.8468394
6.7932673 35.679249 1.5587952
0.97498536 4.6081276 29.942207
1.2622297 6.1069045 30.004108
1.852989 9.1905479 30.019381
2.8547959 14.524533 21.812916
1.5607921 7.5977402 29.900286
2.6902556 13.853324 13.947742
4.5220675 23.351248 19.260824
8.9645367 46.334576 31.026232
5.8350291 30.244131 12.533081
6.1058421 31.6775 9.5725107
6.3645034 33.081551 6.487381
6.6563697 34.598602 3.2560132
6.0614285 30.981447 28.198071
8.2007999 41.993973 31.238794
6.1741805 31.645603 19.032316
5.8110037 29.867317 14.15332
6.0514216 31.131964 11.127147
6.2185493 32.021572 7.9581761
6.5554504 33.756382 4.8882799
6.9282365 35.709267 1.561012
0.99155533 4.6069746 29.957024
1.2847968 6.1084399 30.03348
1.8865595 9.1913347 30.04324
2.9065831 14.519998 21.821182
1.5885899 7.5983973 29.924482
2.7275231 13.787873 13.891668
4.5997844 23.316227 19.245132
9.1262197 46.303001 31.026232
4.1988459 21.34267 11.472621
5.9423542 30.232679 12.536828
6.2108335 31.627745 9.5640497
6.4733262 33.025387 6.4808526
6.7876382 34.628918 3.260931
6.1768346 30.996719 28.231327
8.3504915 41.980953 31.250568
6.2879667 31.640766 19.042448
5.9602222 30.073895 14.26032
6.1490493 31.055065 11.107425
6.3472662 32.085499 7.9792776
6.6732421 33.733292 4.8882799
7.0547795 35.694664 1.5614151
1.0079631 4.6050034 29.966904
1.307603 6.1108875 30.067747
1.9180213 9.1817713 30.033695
2.9583738 14.515278 21.829449
1.6179807 7.6063299 29.977716
2.767184 13.736318 13.849614
4.6550779 23.170282 19.138426
9.2919083 46.291367 31.03994
4.2733202 21.327885 11.472621
6.0505795 30.225389 12.542446
6.3193159 31.59647 9.5612307
6.5914526 33.017044 6.4836512
6.9474721 34.800358 3.2788138
6.2842531 30.971312 28.228001
8.5001898 41.967388 31.262339
6.4017949 31.635523 19.05258
6.0705509 30.079605 14.272909
6.1575427 30.538105 10.931568
6.4438686 31.986908 7.9605203
6.7792172 33.651539 4.8799925
7.1408887 35.478809 1.5535554
1.024369 4.6029735 29.976782
1.3302253 6.1122556 30.097116
1.9500599 9.1750202 30.033695
3.0107384 14.513129 21.841846
1.6479778 7.6166067 30.040627
2.8115335 13.709106 13.832091
4.6945887 22.951782 18.972086
9.4534388 46.258648 31.03994
4.3495135 21.32152 11.477259
6.1588264 30.21771 12.548065
6.4400983 31.625923 9.5767403
6.6753507 32.83979 6.4538064
6.988554 34.380596 3.2426007
6.3696671 30.839487 28.128235
8.6498976 41.9533 31.274111
6.5165339 31.634098 19.065247
6.1846447 30.102686 14.293889
6.2688513 30.539557 10.939786
6.6297007 32.326096 8.0496168
6.950367 33.889629 4.9172893
7.2456355 35.36068 1.5497264
1.0407732 4.6008854 29.98666
1.3526531 6.1125455 30.121593
1.9820749 9.1681576 30.033695
3.0625427 14.508038 21.850113
1.6788768 7.6304493 30.118057
2.8513544 13.660809 13.793542
4.7270789 22.706619 18.783779
4.425714 21.314882 11.481896
6.2661524 30.205109 12.551812
6.5553217 31.626734 9.5837898
6.8466749 33.090485 6.5069666
7.1226478 34.424267 3.2488596
6.428894 30.586868 27.91873
8.7996082 41.938671 31.285885
6.6348777 31.649128 19.088045
6.2915421 30.089796 14.298085
6.3879695 30.577576 10.961151
6.7673283 32.421711 8.0789242
7.0898695 33.966965 4.9317932
7.4251199 35.60416 1.5608104
1.0571752 4.5987391 29.996536
1.3739817 6.1077867 30.121593
2.0143862 9.1626406 30.038469
3.1143484 14.502762 21.858377
1.7071482 7.6319022 30.147095
2.8960586 13.636818 13.779523
4.7950187 22.636671 18.739841
6.3753791 30.201193 12.559303
6.6765699 31.655291 9.5993004
6.9854183 33.176941 6.5284162
7.2489238 34.428432 3.2515421
6.4723821 30.268492 27.649364
8.9493237 41.923512 31.297657
6.7363219 31.583618 19.062714
6.3965373 30.067652 14.298085
6.5005569 30.582808 10.971013
6.8804598 32.397892 8.0789242
7.2155943 33.975918 4.9366279
7.5721703 35.685539 1.5652442
1.073398 4.5957775 30.001478
1.3952935 6.1029534 30.121593
2.0470088 9.1584673 30.048014
3.1661541 14.4973 21.866644
1.7340568 7.6271224 30.151934
2.9428895 13.62314 13.776019
4.855969 22.536087 18.670794
8.97013 41.664661 28.027069
4.2616501 19.828281 10.70278
6.4836831 30.192356 12.564923
6.7870269 31.631794 9.5993004
7.1011853 33.152355 6.5284162
7.37323 34.422398 3.2533305
6.3478851 29.187654 26.684969
9.0998983 41.91177 31.312374
4.5480189 20.964697 12.691769
6.5091333 30.080629 14.31487
6.6112638 30.578394 10.977588
6.9955592 32.383171 8.0812683
7.339376 33.97472 4.9400811
7.6966901 35.65889 1.5652442
1.0894337 4.5920024 30.001478
1.4154361 6.0930867 30.097116
2.0796266 9.1541767 30.057556
3.2179599 14.491654 21.874908
1.7603869 7.6197982 30.147095
2.9904251 13.612784 13.776019
4.916275 22.43535 18.601748
9.1003094 41.563656 27.980465
4.3062425 19.700764 10.64249
6.5920014 30.183125 12.570542
6.9035382 31.636032 9.6077614
7.2273211 33.175362 6.5377426
7.4965215 34.411049 3.2546716
6.4714985 29.263752 26.774757
9.2478848 41.887642 31.318258
4.6174574 20.931856 12.681636
6.5984883 29.986803 14.2813
6.7179618 30.55513 10.977588
7.1148129 32.387039 8.0883026
7.4632382 33.97308 4.9435349
7.8339701 35.690369 1.5676626
1.1056383 4.5889273 30.006416
1.4341234 6.077208 30.04327
2.1119037 9.1483164 30.062328
3.2697647 14.485823 21.883175
1.7875487 7.6160541 30.156775
3.0387018 13.605742 13.779523
5.0106416 22.49024 18.661379
9.2662354 41.625511 28.043516
6.7013402 30.178036 12.578034
7.0160046 31.621107 9.6105814
7.348393 33.173912 6.5424056
7.6187472 34.394398 3.2555659
6.6047287 29.379412 26.901127
9.401124 41.886658 31.341805
6.6813245 29.866152 14.235145
6.8266377 30.540709 10.980874
7.2129889 32.295597 8.0718899
7.5796213 33.937153 4.942153
7.9476233 35.614044 1.5656474
1.1212806 4.5835304 29.996536
1.453192 6.0632534 29.999214
2.1441653 9.1423416 30.067101
3.3215683 14.479807 21.891441
1.8141228 7.6097684 30.156775
3.1623552 13.741651 15.364578
3.089334 13.608964 13.793542
5.1776643 22.863619 18.98464
9.4170151 41.617378 28.059965
6.8097024 30.168026 12.583653
7.0967879 31.465397 9.5711002
7.4199028 32.951572 6.504168
7.7376652 34.362736 3.2551188
6.7072415 29.356178 26.901127
9.5472784 41.853584 31.341805
6.9196033 30.456833 10.959509
7.307385 32.18964 8.0519609
7.6783066 33.823566 4.9297214
8.061945 35.542233 1.5638335
1.1391463 4.5871291 30.045931
1.4724214 6.0502291 29.960051
2.176065 9.1348009 30.067101
3.3727307 14.470865 21.895575
1.8409706 7.6046104 30.161613
3.2133908 13.743733 15.379279
3.1384227 13.605047 13.80055
5.3063259 23.057823 19.160395
9.5641041 41.592407 28.065449
4.5251946 19.710718 10.672635
6.9191136 30.162146 12.591146
7.1787128 31.318861 9.5344391
7.5096765 32.815338 6.482718
7.8475685 34.291824 3.2510953
6.7927856 29.259846 26.834616
9.7070074 41.87907 31.385952
2.5126314 10.87484 5.247087
7.1310377 30.888002 11.122216
7.3781857 31.983961 8.0074129
7.7184062 33.458782 4.8813734
8.1960611 35.55769 1.5656474
1.1557212 4.5853853 30.060747
1.4935316 6.0450525 29.960051
2.2079382 9.1271496 30.067101
3.4245195 14.464481 21.903841
1.8675045 7.5981383 30.161613
3.2589953 13.722536 15.368253
3.1907763 13.614841 13.821577
5.4027314 23.107384 19.216887
4.5768633 19.621466 10.633216
7.0285659 30.155869 12.598638
7.344573 31.536562 9.6077614
7.6608915 32.946819 6.513495
8.0416603 34.584362 3.2806022
5.2182112 22.161106 16.66132
4.3139176 18.335028 11.154129
2.5879138 11.025066 5.3226171
7.2776332 31.028431 11.181382
7.5053134 32.024265 8.0238256
7.8690515 33.576279 4.9020939
8.345191 35.63588 1.5700809
1.1738386 4.5896034 30.11508
1.5131375 6.0338764 29.930679
2.2401407 9.1208372 30.071873
3.4763048 14.45791 21.912106
1.8943199 7.5927935 30.166454
3.302902 13.694599 15.349877
3.241585 13.617498 13.835596
5.432992 22.876312 19.041132
5.900568 24.864367 16.839146
4.5973248 19.402779 10.524232
7.1380582 30.149193 12.606129
7.4766989 31.604094 9.6359615
7.7713342 32.900753 6.5097642
8.1909533 34.677242 3.2917793
5.1330595 21.430344 19.708071
4.3939238 18.386942 11.19466
2.6411185 11.077773 5.3519893
7.338841 30.805313 11.110711
7.6249318 32.030972 8.032032
8.0034084 33.620872 4.9124541
8.4730015 35.621117 1.5706856
1.1892664 4.5832219 30.100264
1.5341904 6.0285578 29.930679
2.2723255 9.1144094 30.076645
3.5260839 14.442954 21.907974
1.9208121 7.5861344 30.166454
3.3434274 13.653351 15.316801
3.4692631 14.351377 14.589073
5.3394175 22.138283 18.444826
5.961853 24.737928 16.767868
4.715807 19.597647 10.637853
7.2475905 30.142122 12.613621
7.5948172 31.610455 9.6458321
7.8895693 32.887756 6.5125618
8.3305368 34.725922 3.2989328
5.1998925 21.379644 19.678141
10.145977 41.779045 31.388895
4.4641781 18.396626 11.209859
2.6851108 11.090541 5.3624797
7.5040665 31.018173 11.196174
7.7366943 32.004158 8.032032
8.1579533 33.746758 4.934556
8.6137133 35.659309 1.573507
1.2050598 4.5782909 30.095324
1.5567522 6.0290813 29.960051
2.3044932 9.1078701 30.081417
3.5805395 14.446947 21.932772
1.9475937 7.5806003 30.171291
3.3828876 13.608696 15.28005
3.55249 14.474255 14.725751
5.4444361 22.232927 18.53898
6.0024505 24.530132 16.641758
4.7915468 19.611191 10.654084
7.3571606 30.134657 12.621114
7.7073855 31.593071 9.648653
8.0078087 32.874332 6.5153599
8.517704 34.967587 3.3239689
5.3076067 21.495483 19.801184
5.4519262 22.113094 16.667206
7.6280637 31.055992 11.219182
7.8344588 31.920309 8.0179634
8.2816038 33.742119 4.9380093
8.7405148 35.638729 1.57391
1.2212342 4.5748076 30.100264
1.5783043 6.0255804 29.969841
2.3362715 9.0997705 30.081417
3.621336 14.396153 21.874908
1.9740431 7.5737557 30.171291
3.4270527 13.583656 15.265349
3.6133387 14.503292 14.767805
5.5220103 22.213787 18.53898
5.6686959 22.820858 15.501309
4.833313 19.486856 10.596114
7.4667659 30.126791 12.628606
7.8222308 31.584597 9.6542921
8.1213331 32.841412 6.5144267
8.6576452 35.010159 3.3306754
7.4839468 29.861191 27.499716
5.5035691 21.991982 16.590685
7.7352815 31.024597 11.21754
8.390955 33.679371 4.9331746
8.8721046 35.637085 1.5751191
1.237602 4.5720167 30.110142
1.6003739 6.0239711 29.989422
2.3683977 9.0930042 30.086187
3.6910546 14.45977 21.990633
2.0007899 7.5680346 30.176132
3.4752889 13.574896 15.269025
3.6718109 14.521708 14.799346
5.6376038 22.345339 18.664516
5.768765 22.882021 15.556139
4.8721075 19.353882 10.533507
7.576407 30.118528 12.636098
7.9371128 31.575712 9.6599321
8.2359209 32.812862 6.5144267
8.76404 34.916935 3.3248634
3.5441499 13.934907 12.887468
5.5673676 21.921707 16.552423
2.8367527 11.202604 5.4296174
7.8435307 30.997406 11.21754
8.5121088 33.664276 4.9352465
9.0025673 35.630119 1.5761268
1.2531422 4.5661702 30.100264
1.6221862 6.021297 30.004108
2.4005051 9.0861244 30.09096
2.027195 7.5610046 30.176132
4.2183905 16.194902 22.234915
3.5209479 13.55612 15.261674
3.7295692 14.536437 14.827383
5.7059164 22.287817 18.633133
5.8454943 22.849594 15.547915
7.6872277 30.114357 12.645464
8.0520267 31.566406 9.6655722
8.3504095 32.783913 6.5144267
8.8883266 34.895779 3.3257573
3.5862393 13.897144 12.86419
5.5591307 21.573353 16.305197
2.8668044 11.157469 5.4128332
7.951684 30.969839 11.21754
8.2407703 32.119007 8.0883026
8.6246433 33.61517 4.9324837
9.1330891 35.622677 1.5771346
1.2676157 4.5565286 30.065689
1.6445364 6.0205088 30.028584
2.4322066 9.0776901 30.09096
2.0539052 7.5550952 30.180971
4.2779746 16.191732 22.250875
3.5673826 13.540467 15.257998
6.6253314 25.453445 25.926281
5.7954221 22.312971 18.670794
5.911562 22.776434 15.512275
2.9143758 11.24486 6.1672068
7.79811 30.109779 12.654828
8.1669731 31.556683 9.6712122
8.4709415 32.778347 6.5190902
8.9839153 34.763287 3.3163688
3.6281087 13.859256 12.840912
5.6221347 21.506891 16.26988
4.8978748 18.749681 11.47331
2.9080231 11.156177 5.4170289
8.0787849 31.015007 11.243835
8.3712015 32.160606 8.1058874
8.7406836 33.58007 4.9317932
9.2636671 35.61475 1.5781422
1.2826695 4.5490847 30.045931
1.6660854 6.0166945 30.038374
2.4638791 9.0691452 30.09096
2.0805988 7.5490913 30.185812
3.6137507 13.524657 15.254324
5.8762488 22.303898 18.68021
5.9452529 22.581783 15.394392
2.9536097 11.234617 6.1672068
7.9090557 30.104794 12.664194
8.2831678 31.551184 9.6782627
8.5940275 32.781837 6.5256186
9.0925779 34.683544 3.311898
3.6611335 13.788768 12.787704
5.6857781 21.444157 16.237505
4.9047775 18.511618 11.339051
2.8959029 10.952897 5.3247151
8.153223 30.858784 11.197817
8.4610786 32.046597 8.0847855
8.8540554 33.534996 4.9297214
9.3955755 35.611179 1.5793513
1.2976868 4.5415912 30.026173
1.6890036 6.017704 30.072641
2.4959178 9.0619287 30.095732
2.1069374 7.5417824 30.185812
3.7986422 13.876348 29.811283
3.6600521 13.508689 15.250648
6.6324329 24.839394 16.940578
2.9768298 11.164316 6.1347437
8.0224485 30.10836 12.677305
8.3981886 31.540621 9.6839037
8.7159786 32.780125 6.5312142
9.1931162 34.574589 3.3047445
3.7053599 13.761483 12.774402
5.8004808 21.572508 16.349346
4.9190273 18.307045 11.225058
2.9446964 10.982174 5.3435969
8.1961145 30.58839 11.110711
8.5754061 32.02626 8.0871305
8.9710598 33.503883 4.9297214
9.5262823 35.602303 1.580359
1.3122354 4.5325556 29.996536
1.7097205 6.0107927 30.067747
2.5275347 9.0531607 30.095732
2.1335926 7.5355916 30.190651
3.8470569 13.863005 29.811283
3.7062862 13.492562 15.246973
6.8887081 25.372347 25.915768
6.0962009 22.515512 15.377944
3.0076888 11.123923 6.1185122
8.1311245 30.093601 12.682924
8.5144854 31.534266 9.6909533
8.8380232 32.777958 6.5368104
3.7484567 13.730454 12.757774
5.8885045 21.598923 16.384663
5.0259604 18.447813 11.321319
3.0008745 11.037522 5.3750682
8.3288383 30.655291 11.145225
8.6693153 31.930458 8.0707188
9.108716 33.548828 4.9407721
9.6583481 35.597759 1.5815681
1.3276114 4.5264564 29.98666
1.7306917 6.0047879 30.067747
2.5591207 9.0442829 30.095732
2.1602306 7.5293055 30.195488
3.8966033 13.853683 29.820288
3.7533615 13.479543 15.246973
6.9696603 25.320637 25.88773
6.1765041 22.485104 18.884209
6.1371231 22.356998 15.284734
8.2397957 30.078445 12.688542
8.6308422 31.527489 9.6980038
8.9549761 32.756386 6.5386753
3.7923789 13.702894 12.744473
6.6034703 23.892426 18.1329
5.0903249 18.430157 11.321319
3.0393844 11.026979 5.3750682
8.4533501 30.689766 11.168234
8.7807207 31.900002 8.0707188
9.2362814 33.555023 4.9462976
9.7878485 35.583099 1.5823742
1.3407476 4.5128565 29.927387
1.7493583 5.990891 30.028584
2.5910866 9.0367289 30.100504
2.1868505 7.5229268 30.200329
3.0371068 10.578174 29.982498
3.9449384 13.839998 29.820288
3.7994699 13.463095 15.243298
7.091548 25.41638 26.010389
6.2196102 22.351551 15.295699
3.0710421 11.051437 6.0906863
8.3497 30.067369 12.696035
8.748538 31.524904 9.7064638
9.0731983 32.739128 6.5414729
9.6464405 34.807564 3.3355932
3.8391793 13.685977 12.741147
6.0391493 21.557287 16.384663
5.0744381 18.125841 11.146529
3.0387769 10.876427 5.3079305
8.5515366 30.628233 11.15673
8.89855 31.892567 8.0765791
9.3733168 33.594128 4.9566579
9.9200478 35.577587 1.5835836
1.3564922 4.5081491 29.927387
1.7682378 5.9779134 29.994318
2.6230316 9.0290632 30.105276
2.2130971 7.5152473 30.200329
3.0773873 10.579107 30.015348
3.9938285 13.828233 29.824787
3.847374 13.453011 15.246973
5.526628 19.543888 20.038643
6.2873788 22.293486 15.271027
3.1340232 11.134792 4.761868
8.8637218 31.512644 9.7121038
9.1914091 32.721443 6.5442705
9.6911182 34.500397 3.3101096
3.8859076 13.668901 12.737822
5.1000257 17.975311 11.065467
3.0791969 10.874487 5.3121262
8.6558256 30.589113 11.153443
9.0891781 32.141941 8.1469183
9.4959135 33.580261 4.9594202
10.05097 35.56678 1.5845912
1.3744856 4.510819 29.976782
1.7885092 5.9697537 29.984526
2.6549544 9.0212841 30.110048
2.239676 7.5086813 30.205168
3.1147842 10.569957 30.020041
4.042685 13.816297 29.829288
3.8924232 13.432986 15.239623
5.6066041 19.565615 20.080696
6.0563002 21.176754 17.842241
6.3571153 22.243259 15.251836
3.1894023 11.18174 4.7862172
8.9855032 31.523029 9.7247934
9.3109522 32.708057 6.5480013
9.8114872 34.466358 3.3101096
3.9304967 13.644489 12.727844
6.1705017 21.448566 16.334629
5.1353445 17.86211 11.007204
3.1058717 10.824409 5.2932439
8.7625494 30.558712 11.153443
9.6212597 33.575474 4.9635644
10.186064 35.569908 1.5862033
1.3906811 4.5074787 29.98666
1.8096325 5.9644489 29.989422
2.6864283 9.011961 30.110048
3.5939074 12.164392 29.941639
2.2658725 7.5008173 30.205168
3.153142 10.56398 30.034119
4.091507 13.804189 29.833792
3.9450188 13.438834 15.261674
7.3990774 25.484568 26.157579
6.1431832 21.200346 17.879904
6.4335575 22.216919 15.249095
3.2245531 11.157177 4.7805982
9.0954838 31.491472 9.7247934
9.4318752 32.698959 6.5526648
9.9565811 34.518028 3.3181572
6.2374163 21.399734 16.314028
5.2193637 17.918575 11.052801
3.1246324 10.748131 5.2617731
8.8770695 30.555145 11.163303
9.7328777 33.522663 4.9608016
10.322692 35.577312 1.5880171
1.4080288 4.5077887 30.021235
1.8316373 5.9619884 30.009003
2.7183013 9.0039587 30.11482
3.6346672 12.146158 29.927834
2.2920415 7.4928622 30.205168
3.1894984 10.551257 30.029425
4.1402941 13.791909 29.838293
3.9783771 13.379487 15.210221
7.4869833 25.455166 26.154076
6.2270164 21.212387 17.90815
6.4816427 22.094017 15.180558
3.242636 11.074667 4.7506294
9.2053537 31.45953 9.7247934
9.5514698 32.684696 6.5563951
10.146854 34.722065 3.3405111
6.1777363 20.896013 19.488586
6.3166552 21.393335 16.3258
5.3916802 18.272356 11.280788
3.1544383 10.711037 5.2491851
8.9916735 30.551151 11.173164
9.8568201 33.512238 4.9642553
10.451045 35.555447 1.5886219
1.4237553 4.5028462 30.021235
1.8527399 5.956531 30.013899
2.7501504 8.995842 30.119593
3.6804421 12.144614 29.955446
2.3181825 7.4848161 30.205168
3.2263098 10.540059 30.029425
4.1890445 13.779453 29.842793
4.0358095 13.401227 15.250648
7.6348505 25.627106 26.357338
6.2721796 21.093519 17.82655
6.4741583 21.786676 14.985914
6.056397 20.4069 11.229147
3.2351365 10.907722 4.6850739
4.6596427 15.720666 4.9095316
9.6710806 32.669998 6.5601258
10.310403 34.829689 3.3539233
6.2335024 20.817093 19.435379
6.3449683 21.216255 16.208075
5.4591327 18.265816 11.288387
3.2034836 10.739103 5.2680674
9.1589689 30.723219 11.247123
9.9737406 33.477631 4.9642553
10.542303 35.408615 1.5839865
1.4399382 4.4993286 30.031113
1.8741324 5.9519701 30.023689
2.7819767 8.9876137 30.124365
3.7228124 12.131693 29.955446
2.3442953 7.4766784 30.205168
3.2630818 10.528732 30.029425
4.2371182 13.764748 29.842793
4.078609 13.374087 15.235949
7.7520747 25.692486 26.451962
6.3412819 21.056589 17.813995
6.5320916 21.703882 14.944792
6.0842376 20.241396 11.150309
3.2451835 10.803124 4.64574
4.6993189 15.653769 4.894022
9.7737741 32.598396 6.5526648
