# .PCD v0.7 - Point Cloud Data file format
VERSION 0.7
FIELDS x y z
SIZE 4 4 4
TYPE F F F
COUNT 1 1 1
WIDTH 1510
HEIGHT 1
VIEWPOINT 0 0 0 1 0 0 0
POINTS 1510
DATA ascii
7.7570376 -0.70729017 3.6882339
6.0388732 -0.54956502 2.199605
4.6956244 -0.42649868 1.227901
3.9107635 -0.35521141 0.63990724
0.044247106 -0.015642492 3.8591266
3.7298846 -0.41478315 23.85704
3.3011153 -0.33516774 10.65467
3.6482494 -0.36146304 8.6963882
5.0799093 -0.496214 9.4210634
5.3281178 -0.51484942 7.9344735
6.201118 -0.5959506 7.5351906
0.23466371 -0.03703171 3.9478304
0.42631066 -0.051760837 3.9621
3.1423161 -0.33064687 12.202509
3.7005861 -0.37707031 10.169639
3.8660622 -0.3864702 8.0974283
5.4338646 -0.5365504 9.0015402
4.8728414 -0.47772428 6.5581088
7.2079492 -0.68003607 7.1944809
8.2845421 -0.77724862 6.7917366
5.2561569 -0.49219465 3.5457759
6.3086667 -0.58854586 3.4031973
7.1555419 -0.66630077 2.9918518
3.9743667 -0.36937755 1.2631872
4.6125183 -0.42707068 0.9709329
3.9618418 -0.36682639 0.45014492
6.3641171 -0.60715646 4.7385774
5.4990563 -0.52365905 3.3316727
7.7003021 -0.7292282 3.6630573
5.7783513 -0.5461995 2.1092122
4.6795893 -0.44151708 1.224384
3.9094996 -0.36886033 0.63990724
3.8794076 -0.36534318 0.25085953
0.044192232 -0.015796848 3.8591266
3.7284141 -0.42780033 23.85704
3.2999251 -0.34668878 10.65467
3.637248 -0.37319827 8.6733751
5.078146 -0.51394314 9.4210634
5.264688 -0.52727461 7.8435493
6.1415901 -0.61187279 7.4661155
0.23453301 -0.037850615 3.9478304
0.4261274 -0.053248625 3.9621
3.15114 -0.34270138 12.241225
3.6872342 -0.38871861 10.13679
3.8473666 -0.39816973 8.0614185
5.4293642 -0.55524951 8.9972744
4.8921294 -0.49686235 6.5860395
4.2140951 -0.42503092 4.6698499
7.280066 -0.7124874 7.2680759
8.2275419 -0.80088258 6.7477975
5.2877011 -0.51377428 3.5677075
6.2095723 -0.60117215 3.3521838
7.1531725 -0.69127423 2.9918518
3.9635029 -0.38232717 1.260367
4.6109991 -0.44316873 0.9709329
3.7325091 -0.35873711 0.42957929
4.9042649 -0.48687604 4.4706283
6.4705629 -0.6401121 4.8180423
7.7970791 -0.76586354 3.7092144
4.2490292 -0.41660547 1.5750718
4.4119573 -0.43180841 1.1599066
3.8589034 -0.37768105 0.63300043
3.883081 -0.37936839 0.25106105
0.044136822 -0.015951011 3.8591266
3.7276695 -0.44090366 23.861979
3.2942431 -0.35772195 10.640355
3.6087251 -0.3830049 8.6089401
5.0858488 -0.53266412 9.4386196
5.2040358 -0.53955358 7.7567568
6.1521707 -0.63462287 7.4814658
0.23439947 -0.038669053 3.9478304
0.42593893 -0.054735761 3.9621
3.1486752 -0.35355851 12.236386
3.6618381 -0.39896953 10.071092
3.826472 -0.40951169 8.0209074
5.4222054 -0.57364929 8.9887428
4.8843718 -0.51330608 6.5780597
4.2125859 -0.43973827 4.6698499
7.2456026 -0.73465735 7.2365351
8.0852814 -0.81553429 6.6348138
5.364923 -0.54018831 3.6197953
6.211843 -0.62328625 3.3545027
7.3398428 -0.73518324 3.0686462
3.9525979 -0.39520553 1.257547
4.5507674 -0.45341706 0.95974147
3.7461004 -0.37324503 0.43092051
4.9025359 -0.5039922 4.4706283
6.7015047 -0.68658942 4.9887457
5.0278282 -0.51422626 3.0555561
7.6724467 -0.780671 3.6525669
4.0972133 -0.41616419 1.5224793
4.4104228 -0.44720641 1.1599066
3.7196109 -0.37716067 0.61366141
3.6530883 -0.36977631 0.24179062
0.044080876 -0.016104979 3.8591266
3.7253366 -0.45381895 23.85704
3.291491 -0.36905241 10.635583
3.6229022 -0.39730358 8.6457605
5.0982451 -0.55196077 9.4649544
5.0846052 -0.54511553 7.5831728
0.23426306 -0.039487027 3.9478304
0.42574525 -0.056222234 3.9621
3.1324387 -0.36281097 12.178312
3.6569929 -0.41136336 10.061706
3.8250194 -0.42286608 8.0209074
5.427948 -0.59342325 9.0015402
4.9155016 -0.53393227 6.6219492
4.2919188 -0.46317104 4.7580538
7.161418 -0.75138515 7.1559305
8.0436726 -0.83971065 6.6034288
5.2881441 -0.55110997 3.5704489
6.1964116 -0.64359283 3.3475463
7.6369586 -0.79187918 3.1903932
3.9321082 -0.40702453 1.251907
3.9974124 -0.4123821 0.45372155
6.6468139 -0.70443976 4.9504848
5.0217152 -0.53131992 3.0530229
7.2408857 -0.76230484 3.4532521
3.9172761 -0.41170681 1.460026
4.3943324 -0.46107718 1.1563896
3.934973 -0.41288021 0.64405131
3.6468067 -0.38200524 0.2415891
0.044024389 -0.016258754 3.8591266
3.7298973 -0.46759373 23.896555
3.2783203 -0.37916708 10.597406
3.5419018 -0.40093547 8.457057
5.0939074 -0.56948745 9.4605656
5.2588778 -0.58237636 7.8435493
4.7266588 -0.52093607 5.7699389
0.2341238 -0.040304516 3.9478304
0.42554641 -0.057708018 3.9621
3.132401 -0.37389207 12.183152
3.6898179 -0.42810497 10.15556
3.7326784 -0.42584917 7.8318572
5.4388018 -0.61382943 9.0228701
4.9136081 -0.55108732 6.6219492
4.300384 -0.47927642 4.7690792
7.1835694 -0.77907026 7.1804624
8.0213423 -0.86569488 6.5877361
5.2113557 -0.5615024 3.5211027
6.1765094 -0.66332626 3.3382711
3.9115841 -0.41870531 1.2462668
5.377861 -0.57377046 1.1182868
3.94643 -0.42104989 0.44925076
4.6576538 -0.51170009 4.2544703
6.6483326 -0.72807717 4.9534283
5.0155454 -0.54837728 3.0504899
7.1659904 -0.77972049 3.419683
3.9064262 -0.42435819 1.4567391
4.3637028 -0.4732689 1.1493558
4.7901435 -0.51952243 0.76422966
3.6603518 -0.39634609 0.24219368
0.043967366 -0.016412329 3.8591266
3.7344074 -0.48140585 23.936069
3.3006918 -0.39343607 10.673759
5.1466103 -0.59357721 9.5615139
5.2568126 -0.60072976 7.8435493
4.7630281 -0.54177952 5.815989
0.23426582 -0.041172694 3.9528222
0.42481449 -0.059119098 3.9571285
3.1310768 -0.38482389 12.183152
3.6728804 -0.43913797 10.113326
3.6641462 -0.43099079 7.6923189
5.436626 -0.63281059 9.0228701
4.776957 -0.55265069 6.4423985
4.2953172 -0.49389735 4.7654042
7.26232 -0.81326973 7.2610669
8.0337458 -0.89541399 6.6002903
5.325726 -0.59263927 3.5978637
6.1609483 -0.68341708 3.3313148
4.069458 -0.45069212 1.7425389
3.8719547 -0.42813885 1.2349865
5.400239 -0.59523016 1.1229501
3.9399862 -0.4342773 0.44880369
4.6484194 -0.52711374 4.2478194
6.6417341 -0.7508257 4.9504848
5.0264511 -0.56733197 3.0580893
6.0635815 -0.6801241 2.2127531
4.3427024 -0.48633432 1.1446664
3.8877032 -0.43538097 0.6378352
3.673841 -0.41078621 0.24279828
0.043909807 -0.016565703 3.8591266
3.7396367 -0.49535725 23.980522
3.3378196 -0.40968508 10.79783
3.5758698 -0.43008626 8.5445042
5.1135893 -0.60786289 9.5044556
4.6305881 -0.54309279 5.6586514
0.23412067 -0.041990183 3.9528222
0.42460555 -0.060601618 3.9571285
3.1309617 -0.39590883 12.187992
3.6627612 -0.45090148 10.089862
3.6172357 -0.43827838 7.5977936
5.424026 -0.65054166 9.005806
4.7211418 -0.56289989 6.3705783
4.3036666 -0.51008499 4.7764297
7.2842369 -0.84147996 7.2855992
6.2788978 -0.72201514 5.1785693
5.3236251 -0.6112259 3.5978637
6.1145139 -0.69988084 3.3081267
4.0586476 -0.46384159 1.7387928
3.8656707 -0.44110802 1.2335765
5.4420552 -0.61907399 1.1313436
3.9384463 -0.44802779 0.44880369
4.5872154 -0.53639764 4.1946115
5.0201583 -0.58437562 3.0555561
8.0214682 -0.92951357 3.8204112
6.0611701 -0.70128584 2.2127531
4.2830367 -0.49479634 1.1305987
4.1518044 -0.47963804 0.67513192
3.7865343 -0.436775 0.2474335
0.043890521 -0.016738826 3.8641264
2.8332481 -0.38529241 18.176895
3.3852401 -0.42750758 10.955305
3.6809835 -0.45577249 8.7976437
5.0424967 -0.61726862 9.3771725
5.0373893 -0.61130792 7.5253119
3.9604244 -0.4785057 4.8527751
0.23425642 -0.042860314 3.9578137
0.42439142 -0.062083401 3.9571285
3.1345465 -0.40748394 12.207349
3.6628771 -0.46390104 10.094555
3.6135235 -0.45063278 7.5932927
5.4113684 -0.66819251 8.9887428
4.737093 -0.58157969 6.3945184
4.2951293 -0.52428281 4.7690792
7.2918782 -0.86816645 7.2961125
6.3304534 -0.75034261 5.2225084
5.3006964 -0.62734771 3.5841563
6.1384296 -0.72433507 3.3220396
4.0524001 -0.4774636 1.7369198
3.8974564 -0.45852259 1.2434467
5.3178916 -0.62375993 1.1080281
3.9912651 -0.46815446 0.45372155
4.5371242 -0.54660064 4.1513801
4.9838471 -0.59778845 3.0352907
8.0181742 -0.95750803 3.8204112
3.9674134 -0.47306985 1.4797481
4.2330174 -0.50399709 1.1188755
4.0082312 -0.47653109 0.25650239
0.043831825 -0.016891932 3.8641264
2.8326557 -0.39528736 18.181833
3.3881676 -0.43989837 10.969621
3.6716182 -0.46763113 8.779233
4.9714007 -0.62618548 9.2498884
5.0352244 -0.62888801 7.5253119
3.9523687 -0.49153605 4.8451004
0.23438893 -0.043731906 3.9628055
0.42364502 -0.063484892 3.952157
3.6954598 -0.48114118 10.188411
3.6119285 -0.46324357 7.5932927
5.3908925 -0.68477684 8.9588804
4.7320442 -0.59773403 6.3905282
4.3000007 -0.54011756 4.7764297
6.3277955 -0.77243549 5.2225084
5.4022422 -0.65849596 3.652693
6.1358643 -0.74575776 3.3220396
4.0461073 -0.49104774 1.7350469
3.9339299 -0.47674155 1.2547269
5.1254869 -0.61933661 1.0716559
3.9549985 -0.47790185 0.45059198
4.5685372 -0.56657088 4.1813097
8.1779146 -1.0113329 6.083602
4.9688954 -0.61359662 3.0276911
4.1063471 -0.50418049 1.5290533
4.192637 -0.51403791 1.109497
6.7042894 -0.82198769 1.0342855
4.0858865 -0.50023347 0.25972688
0.043772593 -0.017044831 3.8641264
2.8304894 -0.40506265 18.176895
3.3895707 -0.45211747 10.979165
4.933558 -0.63892061 9.1840525
5.0050879 -0.64287496 7.4839821
3.9474494 -0.50492263 4.8412628
0.23451823 -0.044604938 3.967797
0.42342082 -0.064963304 3.952157
3.6954684 -0.49426666 10.193104
3.6340303 -0.47897851 7.6428061
5.3884692 -0.70359039 8.9588804
4.3014517 -0.55555838 4.7801046
4.235703 -0.53429604 4.2751937
6.2594075 -0.78627151 5.1691546
5.6115055 -0.70389235 3.7925079
6.155201 -0.76992053 3.3336334
7.0344782 -0.87866616 2.952518
4.2702141 -0.53262717 1.3548393
6.9123054 -0.85974026 1.4139276
3.9533062 -0.49170446 0.45059198
4.6294956 -0.59054697 4.237843
8.0420141 -1.0230397 5.9864774
4.9068527 -0.62333173 2.9922266
7.1107669 -0.89953893 3.4008007
3.9405897 -0.49779668 1.4715307
4.1281257 -0.52076119 1.0942568
6.9863405 -0.88133347 1.074345
3.8759315 -0.48826692 0.25126258
0.043751419 -0.017217878 3.8691261
2.8275206 -0.41471475 18.167015
3.373183 -0.46192068 10.931445
3.6837535 -0.49533558 8.8160534
4.966908 -0.66087687 9.2498884
5.0976672 -0.6728636 7.6245027
3.9710863 -0.52204126 4.871963
0.23436111 -0.045423292 3.967797
0.42319149 -0.066440925 3.952157
3.6323364 -0.49166068 7.6428061
5.3885651 -0.72274208 8.9631472
4.2373495 -0.54953694 4.278698
6.2489038 -0.80711883 5.1628776
5.5882788 -0.72080117 3.7788005
6.1832314 -0.79535764 3.3498652
7.2658734 -0.93333966 3.0480428
4.2635708 -0.54691941 1.3534292
7.0992913 -0.90817302 1.4502997
3.6057856 -0.46126693 0.41929647
4.4497061 -0.58340335 4.0782189
8.6596155 -1.1323392 6.442667
4.8790002 -0.6371069 2.9770277
7.0895815 -0.92201334 3.3924084
3.9247792 -0.50972426 1.4666001
4.0877204 -0.53016639 1.0848782
3.7701578 -0.48831722 0.24703044
0.043691054 -0.017370494 3.8691261
2.8229823 -0.42412004 18.147259
3.3626809 -0.47244596 10.902813
3.6703904 -0.50658828 8.7884378
5.0001655 -0.68307376 9.3157253
3.9724159 -0.53632867 4.8758006
0.23448411 -0.046298198 3.9727888
0.422957 -0.067917734 3.952157
3.8798947 -0.54653758 10.709307
3.6413791 -0.50583488 7.6653118
5.3860092 -0.74154735 8.9631472
4.0623307 -0.55353177 4.5228434
4.0515847 -0.53983045 4.0964618
6.2537656 -0.82995087 5.1691546
5.4945345 -0.72821659 3.718488
7.2074189 -0.95141613 3.0255663
4.2521238 -0.56054479 1.3506092
7.1740041 -0.94319397 1.4652216
3.8609028 -0.5076068 0.44254458
7.5226464 -1.0130496 6.8417096
8.8479004 -1.1883879 6.5839386
5.0006504 -0.67075425 3.0504899
6.9873524 -0.93353242 3.3462515
7.7049718 -1.0280471 2.7945554
4.0906634 -0.54507399 1.0860506
4.1378927 -0.55136991 0.67444122
3.8427145 -0.51135981 0.25005341
0.043630153 -0.017522898 3.8691261
2.8184128 -0.43349868 18.127501
3.6685998 -0.51939726 8.7884378
5.0309558 -0.70517826 9.3771725
3.9927437 -0.55327159 4.9026628
0.23403828 -0.047058318 3.967797
0.42271733 -0.069393717 3.952157
3.9001667 -0.56328511 10.770313
3.650367 -0.52007806 7.6878176
5.380806 -0.75997871 8.9588804
5.7168856 -0.80339354 7.7192059
4.0503006 -0.56630009 4.5118175
7.2120156 -0.9865942 7.2330303
6.258544 -0.85282665 5.1754313
5.4588132 -0.74288076 3.6965563
6.5111337 -0.88378829 3.5260937
7.0938005 -0.96162283 2.9806137
4.7160034 -0.63845384 1.4887924
7.1852717 -0.97020203 1.4680195
3.9874218 -0.53840673 0.45416865
7.426599 -1.0265211 6.7585721
5.5242763 -0.76160985 4.1440587
5.327107 -0.73348349 3.2455444
7.7340856 -1.0594224 2.8060601
4.0791039 -0.55803204 1.0837059
4.0378156 -0.55238616 0.66062766
3.8508058 -0.52612281 0.25045645
0.043568719 -0.017675089 3.8691261
2.8122776 -0.44260892 18.097866
3.4848199 -0.5144453 11.308433
3.6551642 -0.53051585 8.7608232
5.0426874 -0.7247799 9.4035063
4.1716685 -0.59291637 5.1214004
0.23387259 -0.047874976 3.967797
0.42247251 -0.07086885 3.952157
3.8350151 -0.56754631 10.596681
3.6571457 -0.53407556 7.7058229
5.3755393 -0.77838284 8.9546156
5.8959761 -0.84956086 7.9625978
4.115416 -0.59005868 4.5853209
7.1979337 -1.0102758 7.222517
6.2825122 -0.87844092 5.1974006
5.5183058 -0.77060592 3.7376785
6.508009 -0.90651101 3.5260937
4.7375035 -0.65821272 1.4958426
7.0164051 -0.97235072 1.4363104
3.9904506 -0.5530057 0.45461568
7.4192734 -1.0519143 6.7552466
5.4695554 -0.77353013 4.1057978
5.4269567 -0.76654434 3.3063407
4.1348925 -0.58037496 1.0977737
4.4625096 -0.62636286 0.72071677
3.8885264 -0.54511005 0.2520687
0.043468453 -0.017806172 3.8641264
2.8068795 -0.45180506 18.073168
3.4918582 -0.5279457 11.337064
3.6204393 -0.53838539 8.68258
5.0282798 -0.74063259 9.3815613
5.2492714 -0.76758975 7.8642135
4.3376765 -0.6319682 5.3247886
0.23370406 -0.048691057 3.967797
0.42222258 -0.072343126 3.952157
3.8074179 -0.57704991 10.526289
3.6746359 -0.54973751 7.7463341
5.3753695 -0.79752505 8.9588804
5.8691273 -0.86661494 7.9306774
4.1133313 -0.6044206 4.5853209
4.0774789 -0.58680046 4.1280026
6.3140841 -0.90533787 5.2256465
7.626574 -1.092182 5.1358261
6.3074675 -0.90103185 3.4217477
4.450232 -0.63414127 1.4112407
4.27003 -0.60694712 0.91031265
3.8603055 -0.54871023 0.44299164
6.3868628 -0.92601728 4.7827244
6.1367197 -0.88865983 3.7293816
4.1665192 -0.59965187 1.10598
4.1514978 -0.59749252 0.67720395
3.8964903 -0.56010193 0.25247177
0.043406036 -0.017957795 3.8641264
2.8006854 -0.46084276 18.043533
3.4870439 -0.53967458 11.327519
3.5992239 -0.54807812 8.6365547
5.0185585 -0.75710803 9.3683939
5.2382112 -0.78465772 7.8518152
4.2688713 -0.63716823 5.2442007
0.23325051 -0.049445484 3.9628055
0.42196748 -0.073816516 3.952157
3.8241386 -0.59324735 10.57791
3.6769984 -0.56322038 7.7553363
5.3854446 -0.81824261 8.9802113
6.2355089 -0.94296968 8.4254408
4.1413679 -0.62331659 4.6183972
4.08599 -0.60259104 4.1385164
6.3339911 -0.93076801 5.2444773
7.5275617 -1.104831 5.0727725
6.299901 -0.92240179 3.4194291
4.0237274 -0.58841467 1.7313007
4.4052711 -0.64343172 1.3985504
4.4039912 -0.64168 0.93642598
3.8632948 -0.56289995 0.44343874
7.9228702 -1.1769794 5.9158411
6.2742963 -0.93095511 3.8129766
6.6683359 -0.98586261 3.2035837
4.2376199 -0.62574166 1.5800022
4.1740174 -0.61561048 1.1083245
3.8799384 -0.57223976 0.63921654
3.7412908 -0.5511288 0.24622431
0.043343086 -0.018109202 3.8641264
2.7952285 -0.4699716 18.018839
3.502831 -0.55464554 11.384784
3.5702643 -0.55642581 8.5721197
5.0016842 -0.7724281 9.3420601
5.2465668 -0.80464423 7.8683467
4.1652312 -0.63656867 5.1214004
0.2330765 -0.050259378 3.9628055
0.42170724 -0.075289011 3.952157
3.796479 -0.60253417 10.507518
3.6685579 -0.57504052 7.7418327
5.3490539 -0.83182603 8.9247532
6.2649355 -0.96980077 8.4693308
4.15592 -0.6403504 4.6367731
6.3307033 -0.9528721 5.2444773
7.5029836 -1.1279919 5.0590649
6.2966428 -0.94438696 3.4194291
4.0445728 -0.60589063 1.7406659
4.1989956 -0.62828028 1.3379189
7.1856003 -1.0726053 1.4708173
3.7184699 -0.55506033 0.43047345
4.7613292 -0.72599292 4.370863
7.8308015 -1.1912544 5.8510919
6.1644611 -0.93666095 3.7496471
4.2354097 -0.64052993 1.5800022
4.2247105 -0.63816279 1.1212201
3.8877101 -0.58725905 0.64059794
3.7640443 -0.56791168 0.24723196
0.043279607 -0.018260388 3.8641264
2.7889762 -0.47893643 17.989202
3.7144175 -0.62002331 18.128286
3.5008733 -0.56686932 11.384784
3.552866 -0.56642383 8.5352993
4.9965916 -0.78950864 9.3376703
5.2465057 -0.82338959 7.8724794
4.1408167 -0.64763689 5.0945382
0.23289964 -0.051072657 3.9628055
0.42144185 -0.076760583 3.952157
3.7534716 -0.60914677 10.394892
3.666528 -0.58784264 7.7418327
5.3280883 -0.84762418 8.8948917
4.8716469 -0.77153051 6.6059895
4.2206354 -0.66541332 4.7102766
7.6808429 -1.1821635 5.1796894
6.0305986 -0.92601967 3.2803011
3.9966094 -0.61297679 1.7219355
4.1635847 -0.63784868 1.3280487
7.1915245 -1.0991654 1.4726826
3.7312779 -0.57029408 0.43181467
4.7735229 -0.74491155 4.3841653
5.3463936 -0.83240968 4.0233893
6.2463465 -0.97142261 3.8003109
4.3078136 -0.6668691 1.6062983
4.2224574 -0.65290582 1.1212201
3.7620389 -0.58104718 0.24723196
0.043215603 -0.01841135 3.8641264
2.7834609 -0.48799753 17.964506
3.7152417 -0.63349891 18.142973
3.4856193 -0.57689202 11.341836
3.5258002 -0.57473534 8.4754667
4.9914408 -0.80656314 9.3332815
5.2047009 -0.83545387 7.8146186
4.0942211 -0.65499777 5.040813
0.23271994 -0.051885318 3.9628055
0.42117134 -0.078231215 3.952157
3.7513225 -0.62224513 10.394892
3.6666021 -0.60098982 7.7463341
5.3096523 -0.86370492 8.869297
4.8659492 -0.78804934 6.6019993
4.3086538 -0.69471359 4.8095059
4.6324792 -0.73283696 4.6887302
4.8667121 -0.7672925 4.0550022
7.9079785 -1.2453964 5.3332114
5.1958685 -0.81641537 2.8397291
3.9349072 -0.6175791 1.6975861
4.1613331 -0.65237844 1.3280487
7.294415 -1.1409627 1.4932003
3.91131 -0.61179018 0.4483566
4.8003898 -0.76627851 4.410769
5.3713975 -0.85551763 4.0439916
6.2173734 -0.98915642 3.7851117
4.3707561 -0.69224411 1.6293075
4.1865454 -0.66232425 1.1130139
4.4166598 -0.6987322 0.71588206
3.7649226 -0.59495544 0.2474335
0.043151073 -0.018562088 3.8641264
2.7779164 -0.49702606 17.93981
3.7150137 -0.64681304 18.152763
3.4835844 -0.5890556 11.341836
3.5199189 -0.58639699 8.4662619
4.9862318 -0.82359123 9.3288918
5.2128606 -0.85543942 7.8311501
4.0634408 -0.66462845 5.0062752
0.2325374 -0.052697349 3.9628055
0.4208957 -0.07970091 3.952157
3.6963842 -0.62639612 10.249416
3.6666291 -0.61414468 7.7508349
5.3271861 -0.88565588 8.9034243
4.8631687 -0.80502987 6.6019993
4.3062024 -0.70974934 4.8095059
4.6474953 -0.75185066 4.7062531
4.8524761 -0.782417 4.0455871
8.0439434 -1.2956003 5.4264212
5.192987 -0.83454734 2.8397291
4.0837789 -0.65555936 1.7593961
3.9790409 -0.6380384 1.2744675
7.0915146 -1.1345993 1.4549627
3.8009672 -0.60813069 0.43852085
4.7940011 -0.78242886 4.4074435
5.3723674 -0.87491179 4.0469346
6.2096276 -1.0101609 3.7825785
4.3589897 -0.70598668 1.6260204
4.1794095 -0.67615765 1.1118416
4.4141941 -0.714145 0.71588206
3.9699645 -0.64156926 0.25589779
0.043086015 -0.018712601 3.8641264
2.7723427 -0.50602174 17.915112
3.7097261 -0.65924233 18.138079
3.4741521 -0.59994155 11.317975
4.0326438 -0.67405224 4.9717379
0.23235205 -0.053508732 3.9628055
0.42113826 -0.081271157 3.9571285
3.8081009 -0.65901446 10.563831
3.6751914 -0.62877572 7.7733407
5.3420606 -0.90730292 8.9332857
4.8514152 -0.82049292 6.5900292
4.3471589 -0.73209596 4.8572831
4.658916 -0.77039623 4.7202711
4.8497152 -0.79935056 4.0455871
8.064126 -1.3277471 5.4428706
5.1944137 -0.8533873 2.8420477
4.1134892 -0.67506588 1.7725074
3.9057817 -0.64028323 1.253317
4.489078 -0.73430246 0.95507836
3.7889919 -0.61978698 0.43762672
4.9164586 -0.82004517 4.5205107
5.3613067 -0.89233226 4.041048
6.2783551 -1.0438501 3.8256423
4.2074189 -0.69651806 1.5734282
4.1482515 -0.68598431 1.1048076
3.967701 -0.6554231 0.25589779
0.043020435 -0.018862886 3.8641264
2.7667401 -0.51498461 17.890417
3.474977 -0.6125834 11.327519
3.3944769 -0.58987969 8.1763029
5.5312762 -0.94739777 8.3147049
3.9860332 -0.68057173 4.9180131
0.23216385 -0.054319467 3.9628055
0.42085201 -0.082740702 3.9571285
3.9196341 -0.69242013 10.878247
3.6729743 -0.64160067 7.7733407
5.3645582 -0.93040174 8.9759445
4.8307061 -0.83434522 6.5660892
4.3946934 -0.7558865 4.9124107
7.1985664 -1.2162071 7.2540584
4.8468957 -0.81627434 4.0455871
5.5111313 -0.92716056 3.7486444
5.2088771 -0.87444764 2.8513229
4.2208371 -0.70782238 1.8174602
3.9555652 -0.66263127 1.2688273
4.6318383 -0.77426505 0.98305702
3.742599 -0.62561959 0.43360299
4.9172468 -0.83782899 4.5238361
5.3980069 -0.91781676 4.0704799
6.3596716 -1.0801967 3.8763061
6.1674204 -1.0442274 2.9790921
4.1816816 -0.70726281 1.5652106
4.1362462 -0.69884068 1.102463
4.6581268 -0.78701913 0.75110674
3.837306 -0.64765143 0.25065798
0.042954329 -0.019012941 3.8641264
2.7618721 -0.52405947 17.870659
3.4595954 -0.62233055 11.284572
3.3923972 -0.6017251 8.1763029
5.5417953 -0.96912366 8.3353691
3.936269 -0.68622363 4.8604503
0.23197283 -0.055129539 3.9628055
0.42108318 -0.084314421 3.9621
3.9307795 -0.70854747 10.915789
3.6471379 -0.65021437 7.7238274
5.3895268 -0.95412332 9.0228701
3.9434564 -0.69527513 5.3770623
4.3319249 -0.76066774 4.8462577
7.2118487 -1.2443594 7.2715807
4.87854 -0.83912659 4.073833
5.5243459 -0.94922495 3.7596102
4.2183409 -0.72255147 1.8174602
3.9957831 -0.68371648 1.2815176
4.6048961 -0.78629434 0.97839385
3.7403922 -0.63867986 0.43360299
4.9179711 -0.85562837 4.5271616
7.6089969 -1.3211073 5.7068772
6.4025841 -1.1104933 3.904171
6.1682096 -1.0665225 2.9811902
3.9418707 -0.68086368 1.4813917
4.076303 -0.70335674 1.0883951
4.6992707 -0.81085259 0.75732285
3.8793321 -0.66867995 0.25247177
0.042887699 -0.019162763 3.8641264
2.7562118 -0.53295904 17.845963
3.457402 -0.63440305 11.284572
3.205724 -0.58015746 7.7344604
5.5383782 -0.98846227 8.3353691
3.8802035 -0.69041336 4.7952127
0.23177898 -0.05593894 3.9628055
0.42078629 -0.085783765 3.9621
3.9673183 -0.72944266 11.023723
3.6277118 -0.65982431 7.6878176
5.3810306 -0.97200316 9.0143385
3.9706616 -0.7143721 5.4169626
4.1557193 -0.7446875 4.655149
7.2447762 -1.2721986 6.0133986
5.5086432 -0.96633518 3.7513859
4.1655602 -0.72848684 1.7968569
4.0737057 -0.71169502 1.3054882
3.6694567 -0.63975757 0.42734388
4.9002495 -0.87017858 4.5138597
7.588419 -1.3448381 5.6951041
6.3095279 -1.1170537 3.8509743
3.9906249 -0.70363921 1.4994704
4.1073322 -0.72348392 1.0966015
4.7646894 -0.83927804 0.76699239
3.8769743 -0.68221724 0.25247177
0.042858098 -0.019334568 3.8691261
2.7512851 -0.54197574 17.826206
3.4566338 -0.64674234 11.289344
3.330478 -0.61475313 8.0382271
5.5764222 -1.0153506 8.3973646
3.8146963 -0.69250256 4.7184629
0.2315823 -0.05674766 3.9628055
0.42100614 -0.087360889 3.9670715
3.981709 -0.74646705 11.07065
3.6146841 -0.67049789 7.6653118
5.3699098 -0.98936278 9.0015402
3.9888904 -0.73203564 5.4448924
4.0597177 -0.74211866 4.5522447
4.1352458 -0.74325603 4.2086072
7.2173042 -1.2933602 5.9945683
5.4805408 -0.9811368 3.734937
5.308454 -0.94842404 2.9092929
4.2314487 -0.75524157 1.8249524
4.0711966 -0.7259106 1.3054882
3.8883624 -0.6919148 0.84129876
3.8780279 -0.69007844 0.44656828
4.893508 -0.88661271 4.5105343
7.4046912 -1.3389523 5.5626621
5.4529204 -0.98503709 3.3418052
5.5397491 -0.9977355 2.6895609
4.3088245 -0.7752642 1.6128724
4.1047816 -0.73781675 1.0966015
4.7666054 -0.85678095 0.76768309
3.8745692 -0.6957463 0.25247177
0.042790346 -0.019484054 3.8691261
2.7455673 -0.55081165 17.80151
3.4924779 -0.6660766 11.413416
3.5068662 -0.65998405 8.4662619
5.6586123 -1.0507369 8.525485
3.8217103 -0.70756471 4.7299752
0.2313828 -0.057555687 3.9628055
0.42069861 -0.088829949 3.9670715
3.9858592 -0.76165712 11.089421
3.6101828 -0.68270689 7.6608105
5.2895284 -0.99365503 8.8735628
5.3428311 -0.99982089 7.2723236
4.2304049 -0.7885927 4.7433529
4.115087 -0.75447035 4.1910844
4.8733144 -0.89086759 4.0769715
5.4770823 -1.0002614 3.734937
5.2963948 -0.96535951 2.9046555
4.2287869 -0.77000743 1.8249524
4.1063943 -0.74698567 1.3167684
3.9197562 -0.71162587 0.84782708
3.8657956 -0.70183194 0.44567412
4.8683538 -0.89961773 4.490581
7.2568741 -1.3383987 5.4567084
5.4706464 -1.007971 3.3544712
5.5362325 -1.0170667 2.6895609
4.0506396 -0.74341577 1.5224793
4.1165237 -0.75477034 1.1001184
4.8122931 -0.88234508 0.77458984
3.872117 -0.70926678 0.25247177
0.042722076 -0.019633301 3.8691261
2.7405829 -0.55976981 17.781752
3.5252984 -0.6850993 11.527943
3.5045409 -0.67222124 8.4662619
5.66044 -1.0715297 8.5337515
3.8255165 -0.72208977 4.7376499
0.23118047 -0.058363013 3.9628055
0.42038599 -0.090297915 3.9670715
3.9933393 -0.77754486 11.117579
3.6035023 -0.6944806 7.6518078
5.2527275 -1.0057365 8.8181047
5.3333888 -1.0173355 7.2643433
4.2675929 -0.81094986 4.7874551
4.101912 -0.76686394 4.1805711
5.8879948 -1.0976176 4.9118009
5.4530034 -1.015546 3.7212296
5.336545 -0.99193704 2.9278433
4.0943289 -0.75956511 1.3139483
3.8388388 -0.71078849 0.44343874
4.8505068 -0.91384077 4.4772792
7.1806545 -1.3502758 5.4037313
5.4670944 -1.027061 3.3544712
5.6441717 -1.0572767 2.7420123
4.1965508 -0.78534746 1.5750718
4.0708637 -0.76109558 1.0895675
4.8578615 -0.90823871 0.78149664
3.8745286 -0.72369593 0.2526733
0.042653281 -0.019782308 3.8691261
2.7348087 -0.56854171 17.757055
3.5170286 -0.69624096 11.508856
3.4714949 -0.67845374 8.392621
5.6069293 -1.0816863 8.4593582
3.8292677 -0.73664999 4.7453251
0.23097534 -0.059169628 3.9628055
0.42006823 -0.091764785 3.9670715
3.98383 -0.7901364 11.098806
5.2440658 -1.0230671 8.8095741
5.368258 -1.0434208 7.3162141
4.3080044 -0.83422071 4.8352323
4.0851974 -0.77850705 4.1665525
5.8611841 -1.1138039 4.8929701
5.4494252 -1.0345743 3.7212296
5.3069358 -1.0056106 2.9139307
5.8585582 -1.1090859 2.4973712
4.0869389 -0.77296078 1.3125383
3.8265474 -0.72233665 0.44254458
4.8179531 -0.92513371 4.450675
7.1758976 -1.3753327 5.4037313
5.4380722 -1.0412742 3.339272
5.6805687 -1.084633 2.7608948
5.7430515 -1.0955299 2.1240036
4.0299845 -0.76802123 1.080189
4.7379136 -0.90294045 0.76492035
3.8768868 -0.73815066 0.25287482
0.042583965 -0.019931076 3.8691261
2.7297666 -0.57744092 17.737299
3.5438418 -0.71441436 11.604295
3.4576094 -0.6882785 8.3650055
5.6086426 -1.1023371 8.4676247
3.8298182 -0.75062871 4.7491627
0.2304883 -0.059901726 3.9578137
0.41974536 -0.093230538 3.9670715
3.9861221 -0.80506277 11.112885
3.6988957 -0.73968667 7.8633657
5.2430205 -1.0418744 8.813839
5.4237003 -1.0738586 7.3960142
4.2385454 -0.83613008 4.7617288
4.0719528 -0.79072273 4.1560392
5.6585522 -1.0957752 4.7297702
5.4375701 -1.0520015 3.7157469
5.1598616 -0.99641132 2.8374102
5.7454038 -1.108452 2.4524183
4.0795059 -0.78631431 1.3111284
4.7384868 -0.91162574 0.52614838
4.8146949 -0.94194591 4.450675
7.1670856 -1.3995981 5.4007883
5.4174805 -1.0569483 3.3291395
5.4703388 -1.0633104 2.0286801
3.9843359 -0.77374429 1.0696381
4.7590389 -0.92419368 0.76837379
3.8840952 -0.75358206 0.2532779
0.042514134 -0.0200796 3.8691261
2.730773 -0.58762026 17.757055
3.5398643 -0.72648019 11.599523
5.618556 -1.1246698 8.4882889
0.23027779 -0.060705919 3.9578137
0.41889751 -0.094577231 3.9621
3.9832878 -0.81897205 11.112885
3.7240222 -0.7582407 7.9218807
5.2853637 -1.0694807 8.890626
5.9604654 -1.2017777 8.1261883
6.4226213 -1.2903123 7.179987
4.0586724 -0.80285543 4.1455255
5.1315298 -1.0123111 4.2998018
4.8825235 -0.96054453 2.6913259
4.0720286 -0.79962528 1.3097183
4.6228747 -0.90612888 0.5158655
4.8003922 -0.95655745 4.4406986
7.1700859 -1.4261847 5.4066744
5.4137583 -1.0758524 3.3291395
3.8564701 -0.76428014 1.9048893
4.2251549 -0.83658743 1.5882198
4.0006833 -0.79142058 1.0743273
4.736352 -0.93695605 0.76561099
3.8912432 -0.76907283 0.25368094
0.042406708 -0.020204883 3.8641264
2.7309823 -0.59764743 17.771875
3.5358458 -0.73852694 11.594751
5.4188261 -1.1043743 8.19485
5.1342835 -1.043591 6.349402
0.23006448 -0.061509363 3.9578137
0.41804537 -0.095919155 3.9571285
3.9449334 -0.8254481 11.014337
3.7789071 -0.78316474 8.0434141
6.0772543 -1.2474182 8.2897797
6.4645786 -1.3222349 7.2314396
4.0768213 -0.82124364 4.1665525
5.1661253 -1.0378841 4.3311863
8.2752542 -1.6610386 5.6183243
5.0268188 -1.0071713 2.7701652
4.2101583 -0.84278274 1.8230792
4.0645089 -0.81289363 1.3083082
4.8364577 -0.96553397 1.0278229
4.8153195 -0.9770205 4.4573264
7.1650634 -1.4512042 5.4066744
5.4184203 -1.0964534 3.3342059
3.8626761 -0.77953279 1.9090853
4.1435156 -0.83546352 1.5602802
3.9931314 -0.80442077 1.073155
4.8010163 -0.96717477 0.77528054
3.9081259 -0.78659421 0.25448707
0.042335924 -0.020352786 3.8641264
2.7303963 -0.60751432 17.781752
3.5317862 -0.7505545 11.589979
5.0036387 -1.0434053 9.4342299
5.4535122 -1.1312853 8.2527113
5.1337485 -1.062156 6.3532395
0.22984838 -0.062312063 3.9578137
0.41718897 -0.09725628 3.952157
3.9335895 -0.83741665 10.990873
3.7292888 -0.78646696 7.9443874
5.5483379 -1.1630751 9.3428154
6.0699129 -1.2680078 8.2857895
6.2840161 -1.3081715 7.0366559
4.0774231 -0.83618593 4.1700573
5.1624713 -1.0559109 4.3311863
8.2243414 -1.6807051 5.5881681
5.4963775 -1.1212243 3.0229144
4.2117333 -0.85839963 1.8249524
4.0569458 -0.8261193 1.3068981
4.8330584 -0.98241055 1.0278229
3.8356094 -0.77966118 0.4443329
4.8082232 -0.99306792 4.4540005
7.2114182 -1.486817 5.4449358
5.4145598 -1.1153605 3.3342059
3.8910518 -0.79940492 1.9237719
3.941668 -0.80909246 1.4896092
4.0521989 -0.83104944 1.0883951
4.8364196 -0.99188685 0.78080595
3.9053564 -0.80023134 0.25448707
0.0422277 -0.020477185 3.8591266
2.738111 -0.61927074 17.845963
3.5306039 -0.76319361 11.594751
3.2604299 -0.69648468 7.9139585
5.1100798 -1.0842301 9.6405172
5.5101042 -1.1631016 8.3436356
5.0955081 -1.0728054 6.3110266
0.22962947 -0.063114002 3.9578137
0.41684693 -0.098711945 3.952157
3.9306424 -0.85114235 10.990873
3.6200957 -0.77664489 7.719327
5.982923 -1.2716464 8.1740694
4.3027391 -0.91138637 4.8462577
4.0954251 -0.85478568 4.1910844
5.1397009 -1.0699583 4.3154941
8.1283607 -1.6906699 5.5278559
5.6832709 -1.1800289 3.1249413
4.1860151 -0.8683877 1.8155872
4.0446434 -0.83832848 1.3040781
4.7863064 -0.99031734 1.0194292
3.8621247 -0.79909933 0.44701537
4.8376131 -1.0167577 4.4839301
7.6215496 -1.5991331 5.7539678
3.9770863 -0.83156002 1.9657328
3.9619317 -0.82767487 1.4978268
3.9350793 -0.82135367 1.0602596
4.8910985 -1.020905 0.78909409
3.887867 -0.81079882 0.25388247
0.042155966 -0.020624461 3.8591266
2.7465339 -0.63126254 17.915112
3.5279183 -0.77551311 11.594751
3.1777968 -0.69043756 7.7206526
5.1530852 -1.1121669 9.7282982
5.5582848 -1.1935542 8.4221621
0.22940777 -0.063915178 3.9578137
0.41598171 -0.10004125 3.9471855
3.9158502 -0.86225963 10.958024
3.62587 -0.79113311 7.7373314
5.9755025 -1.2918862 8.1700792
4.1470828 -0.89355099 4.6771998
4.1168356 -0.87426215 4.2156162
7.7138281 -1.6339601 6.4402289
8.2164984 -1.7389463 5.5909095
5.7224588 -1.2090172 3.1481295
4.1194553 -0.86958885 1.7893648
4.0369983 -0.85145169 1.3026681
4.7828202 -1.0070187 1.0194292
7.5615025 -1.6168628 6.9680791
7.7700853 -1.6586369 5.8687506
4.1739225 -0.88793504 2.0601451
4.3553467 -0.92495251 1.1645958
4.9020381 -1.0410582 0.79116619
3.8263676 -0.81192106 0.2514641
0.042083714 -0.020771487 3.8591266
2.7602031 -0.64455807 18.018839
3.539757 -0.79107928 11.64247
3.1639216 -0.69899684 7.693038
4.9947777 -1.0962586 9.4386196
5.6145678 -1.2261585 8.5130863
5.0346541 -1.0967537 6.2457891
0.22890578 -0.064635955 3.9528222
0.41562995 -0.10149269 3.9471855
3.8336697 -0.85820276 10.737464
3.6315875 -0.80567116 7.7553363
3.9882946 -0.8739149 4.5044675
4.2287922 -0.9134773 4.3312664
7.597733 -1.6370999 6.3492141
8.2144661 -1.7684966 5.5936508
5.7831669 -1.2429475 3.1829114
4.2750349 -0.91803056 1.8549209
4.0386925 -0.86654478 1.3040781
4.7744727 -1.0226789 1.0184965
4.2362738 -0.90739983 0.48188755
7.6616178 -1.6662588 7.064518
7.8432484 -1.702902 5.9276142
4.2151561 -0.91209799 2.0811255
4.3391457 -0.93814069 1.634238
4.4091039 -0.95246595 1.1786637
4.9225755 -1.0633913 0.79461956
3.8235102 -0.82527256 0.2514641
0.042047627 -0.020941906 3.8641264
2.7571802 -0.65400964 18.013897
3.5165956 -0.79880065 11.575663
3.1805236 -0.71431845 7.7390623
4.9909205 -1.1136869 9.4386196
5.6487131 -1.2542899 8.5709476
5.0933833 -1.1281853 6.3225393
0.22895595 -0.065515183 3.9578137
0.41475588 -0.10281411 3.942214
3.6522889 -0.83099127 10.24003
5.4806614 -1.2290146 9.2574968
5.8457694 -1.3066211 8.0064878
3.9488201 -0.87972176 4.4640403
4.4485016 -0.97720522 4.5555573
7.3030128 -1.6002905 6.1106915
8.1796503 -1.7908995 5.574461
5.8004313 -1.2678566 3.1945055
4.2899208 -0.93690437 1.8624129
4.0403295 -0.88165987 1.3054882
4.6460819 -1.0121523 0.99424845
4.2330809 -0.92218167 0.48188755
7.7687716 -1.7179859 7.1676092
7.8333101 -1.7293983 5.9246707
4.2208114 -0.92875683 2.0853217
4.3958001 -0.96646357 1.6556036
4.4437313 -0.97619414 1.1880422
4.9430175 -1.0858806 0.79807293
0.041974269 -0.02108855 3.8641264
2.7571464 -0.66417611 18.028715
4.9893389 -1.1316315 9.4430084
5.6443005 -1.2739999 8.5709476
5.1238103 -1.1537029 6.3647523
0.22872588 -0.066313982 3.9578137
0.41439447 -0.10426125 3.942214
3.8830678 -0.89777529 10.892325
3.5452416 -0.81252235 7.58429
5.4661665 -1.2458198 9.2404327
3.8636472 -0.87773585 5.3212018
3.9391124 -0.89200276 4.4566903
4.3371682 -0.96862978 4.4469166
7.1644115 -1.5961481 6.0008454
8.3366098 -1.8557843 5.6841192
5.8392129 -1.2977067 3.2176933
4.286624 -0.95187324 1.8624129
4.0559602 -0.89991426 1.3111284
4.7672172 -1.0559857 1.0184965
4.4389067 -0.98326379 0.50111192
4.6189451 -1.038341 4.2977018
4.2175436 -0.94348449 2.0853217
4.3739662 -0.97768152 1.6490296
4.9681954 -1.109605 0.80221707
0.0419004 -0.021234939 3.8641264
2.7563207 -0.67416567 18.038593
3.1694155 -0.74322915 10.454247
3.4095435 -0.79080594 8.3051739
4.9876919 -1.1495787 9.4473972
5.57125 -1.2779648 8.4676247
5.113503 -1.1701512 6.3570771
0.22821636 -0.067029461 3.9528222
0.41351166 -0.10557475 3.9372425
3.8782303 -0.91092968 10.887632
3.5402637 -0.82439882 7.5797887
5.4592443 -1.2643043 9.236167
3.8488157 -0.88850576 5.3052416
3.926064 -0.90346664 4.4456649
4.1285725 -0.93718344 4.2401481
7.5573955 -1.7114136 6.3303828
8.366786 -1.8931787 5.7087927
4.1928329 -0.94641525 1.8249524
4.0527945 -0.91406673 1.3111284
4.7682939 -1.0736991 1.0194292
4.1876731 -0.94295955 0.47831091
4.604373 -1.051963 4.2877254
7.5412502 -1.7202178 5.7157068
4.1522665 -0.94411284 2.055949
4.365922 -0.99189734 1.6473861
4.9884381 -1.1324219 0.8056705
0.041826021 -0.021381071 3.8641264
2.754705 -0.68397027 18.043533
3.153733 -0.75117457 10.411299
3.41627 -0.80494314 8.328186
4.944006 -1.1576985 9.3727837
5.4982405 -1.2814354 8.3643007
0.227981 -0.067825675 3.9528222
0.41314062 -0.10701752 3.9372425
3.5521934 -0.84025985 7.6112971
5.4446425 -1.2809635 9.2191029
3.8075535 -0.89299017 5.2533712
3.926187 -0.91793734 4.4493399
4.0523014 -0.93475503 4.1665525
7.5627556 -1.7404025 6.3397985
8.3845768 -1.927995 5.7252412
5.8515983 -1.3433962 3.2292874
4.0121722 -0.91963387 1.2998481
4.60431 -1.0688732 4.2910514
7.4840102 -1.7346661 5.6774454
4.1489458 -0.95860124 2.055949
4.3808374 -1.0113802 1.6539601
5.0230575 -1.1587329 0.81119591
0.041751131 -0.021526938 3.8641264
2.7485335 -0.69263208 18.018839
3.1409361 -0.75972164 10.377895
3.3545399 -0.80276626 8.1855078
4.9399347 -1.1749492 9.3727837
5.4882569 -1.2993232 8.3560343
3.5392704 -0.83593768 4.4306502
0.22774287 -0.068621069 3.9528222
0.41224912 -0.10832301 3.932271
3.5648594 -0.8636179 10.028856
3.6529574 -0.87757403 7.8318572
5.4401383 -1.2999612 9.2191029
3.7985508 -0.90487903 5.2453914
3.9262576 -0.93242013 4.4530149
4.0316529 -0.94482577 4.1490297
7.5566344 -1.7667906 6.3397985
8.394084 -1.9610561 5.7362075
5.7778497 -1.3477135 3.1921866
3.8926547 -0.9072631 1.7032052
4.0369697 -0.94016182 1.3083082
4.8276663 -1.1225369 1.0324858
4.622355 -1.0900809 4.3110042
7.4582376 -1.7561476 5.6627297
5.6330791 -1.3253473 3.4861965
4.3496962 -1.0201961 1.644099
4.9466605 -1.15931 0.80083567
0.041675735 -0.021672547 3.8641264
2.7438405 -0.70164424 18.004019
3.1092727 -0.7635597 10.282455
4.9404597 -1.1933104 9.3815613
5.2730126 -1.2678164 8.037797
3.5363309 -0.84828699 4.4306502
0.22750194 -0.069415621 3.9528222
0.41186848 -0.10976137 3.932271
3.5534441 -0.87399518 10.005392
3.7302387 -0.909926 8.002903
5.3417921 -1.296187 9.061264
5.0108075 -1.2121783 6.9012513
3.9262743 -0.94691449 4.4566903
4.0456767 -0.96302241 4.1665525
7.3989415 -1.7571819 6.2142606
5.0754771 -1.2044379 3.5046537
5.5811663 -1.3213705 2.4055927
5.1166873 -1.2104634 1.6354358
4.8332801 -1.1416403 1.0343511
4.6185217 -1.1062093 4.3110042
7.5110292 -1.7962732 5.7068772
5.6284184 -1.3450024 3.4861965
4.3185468 -1.028807 1.634238
4.3929181 -1.04572 1.179836
4.9425836 -1.1765699 0.80083567
0.041599829 -0.021817889 3.8641264
2.7391186 -0.71063226 17.989202
3.0964496 -0.77188057 10.249051
3.3507504 -0.82663357 8.1901102
4.8943954 -1.2002801 9.3025579
5.372437 -1.3115772 8.19485
3.5364623 -0.86138445 4.4344873
0.22725825 -0.070209324 3.9528222
0.41148284 -0.11119839 3.932271
3.5604174 -0.88890213 10.033549
3.8305817 -0.94858462 8.2234621
5.2663302 -1.297357 8.9418173
5.0797024 -1.247631 7.0010018
3.9295306 -0.96222663 4.4640403
4.125484 -0.99724984 4.2506618
7.2565455 -1.7501445 6.1012759
5.0875025 -1.226066 3.5156198
5.6261735 -1.353817 3.1156662
5.6351166 -1.3549337 2.4299419
5.3549757 -1.2865913 1.7087575
4.91047 -1.1779852 1.0502057
4.6218886 -1.1240891 4.3176551
7.5086417 -1.8234346 5.7098203
5.6111217 -1.3615913 3.4785969
5.2502723 -1.2711234 2.5846584
4.2873907 -1.0372131 1.6243769
4.3892412 -1.0610477 1.179836
0.041523419 -0.021962969 3.8641264
2.7336159 -0.7193979 17.969444
3.0937364 -0.7826845 10.249051
3.3459494 -0.83785021 8.1855078
4.8018618 -1.1953709 9.1357737
5.4770813 -1.3574008 8.3601675
3.5365455 -0.87449324 4.4383249
0.22701178 -0.071002178 3.9528222
0.41109216 -0.11263406 3.932271
3.5405648 -0.89708579 9.9866219
3.8272471 -0.96195012 8.2234621
5.2617693 -1.315732 8.9418173
3.9327283 -0.97757316 4.4713907
4.2258816 -1.0371463 4.3557982
7.5755248 -1.8550835 6.3711834
5.0872531 -1.2448112 3.5183611
5.8150582 -1.4207606 3.2200122
5.7294326 -1.3987856 2.4711487
5.4156981 -1.321193 1.7284981
4.8967824 -1.1927935 1.0483404
4.6251864 -1.1420058 4.324306
7.4708352 -1.841893 5.686275
5.614706 -1.3832319 3.4836633
5.2546177 -1.291609 2.5888543
4.247057 -1.0431614 1.6112288
4.4091134 -1.0821556 1.1856976
4.563931 -1.1201564 0.74765337
0.0414465 -0.022107776 3.8641264
2.7348411 -0.72993785 17.994141
3.0866482 -0.79236525 10.234735
3.361939 -0.85433698 8.2315331
4.7906938 -1.2103652 9.1226063
5.4804969 -1.3785706 8.3725662
3.5334713 -0.88683271 4.4383249
0.22676256 -0.07179416 3.9528222
0.41018304 -0.11392519 3.9272995
3.505657 -0.90127414 9.897459
3.7479277 -0.95593321 8.0614185
5.1914196 -1.3174112 8.8309031
3.9292917 -0.99129498 4.4713907
4.301826 -1.0717205 4.4364028
7.697433 -1.9134415 6.477891
5.0950513 -1.2655854 3.5265856
6.0379386 -1.4975704 3.3429086
5.7695131 -1.429929 2.4898791
6.1141663 -1.5142225 1.9414129
4.9021263 -1.2122377 1.0502057
4.6899848 -1.1753901 4.3874907
7.4094644 -1.8542219 5.6450706
5.588933 -1.3975934 3.4709976
5.5627265 -1.3879536 2.7378161
4.2433896 -1.0579799 1.6112288
4.4053087 -1.0975397 1.1856976
4.4734993 -1.1145314 0.73522109
0.041369077 -0.022252318 3.8641264
2.7300267 -0.73887056 17.979322
3.0780854 -0.80162972 10.215648
3.3797457 -0.87143326 8.2821608
5.5274563 -1.4109169 8.4510918
3.5769451 -0.91102868 4.4958873
0.22651058 -0.072585277 3.9528222
0.40978289 -0.1153563 3.9272995
3.5008199 -0.91307008 9.892766
3.6813428 -0.95264721 7.9263821
5.1539559 -1.32707 8.7754459
3.6041462 -0.92532372 5.0019999
3.9290922 -1.0058455 4.4750662
4.2392826 -1.0718684 4.3768253
7.8227978 -1.9736251 6.5877361
5.098712 -1.2854073 3.5320685
5.9338717 -1.4937651 3.2895763
4.3168211 -1.085894 1.8867624
5.9320555 -1.4911168 1.8878317
4.8978648 -1.229342 1.0502057
4.7401319 -1.2055591 4.4373732
7.3598528 -1.8691301 5.6126962
5.5798421 -1.4160335 3.4684641
5.6062446 -1.4196178 2.7608948
4.2808719 -1.0832112 1.6260204
4.4203005 -1.1176765 1.1903868
4.3831644 -1.1082892 0.72278881
0.041291151 -0.022396587 3.8641264
2.7334254 -0.75004113 18.018839
3.0579503 -0.80779374 10.158384
3.4201546 -0.89459753 8.3880186
4.9976883 -1.29985 9.5307903
5.5497394 -1.4372581 8.4924221
3.6637387 -0.94676661 4.6071749
0.22625583 -0.073375501 3.9528222
0.40886521 -0.11663924 3.922328
3.5159621 -0.93014008 9.9443865
3.57061 -0.93729973 7.6968203
5.1341519 -1.3410976 8.7498503
3.5863144 -0.93410116 4.9820499
3.8861816 -1.0093274 4.4309645
7.7178235 -1.9758208 6.5061369
5.0739388 -1.2980155 3.5183611
5.9286213 -1.514469 3.2895763
4.2860537 -1.0940763 1.8755243
4.1279526 -1.0529559 1.3421489
4.8118167 -1.2416903 4.5072088
7.3219709 -1.8867404 5.5891509
5.5706906 -1.4344273 3.4659309
5.8693943 -1.5080751 2.888876
4.2633433 -1.0946245 1.6210899
4.4352045 -1.1379312 1.1950761
4.4032526 -1.1297359 0.72624224
0.041212719 -0.022540584 3.8641264
2.7420189 -0.76270241 18.092926
3.0536702 -0.81807673 10.153612
3.4188991 -0.90703166 8.392621
5.0000682 -1.31912 9.5439568
5.6100082 -1.4737822 8.5916128
3.8588414 -1.0115699 4.8527751
0.22599831 -0.074164838 3.9528222
0.40845561 -0.11806574 3.922328
3.5260277 -0.94598514 9.9819288
3.5084143 -0.9340741 7.570786
5.1496077 -1.3643546 8.7839775
3.5742919 -0.94430482 4.9700794
3.8924696 -1.0254778 4.4419899
3.9210835 -1.0205872 4.0614161
7.6882749 -1.9968779 6.4873056
8.1655827 -2.1193357 5.6155825
5.7174683 -1.4818083 3.1782737
4.2777205 -1.1078683 1.8736513
4.1103201 -1.063753 1.3379189
4.8219018 -1.2622615 4.5205107
7.2253966 -1.888775 5.5214581
5.5072575 -1.4386103 3.4304667
5.8904452 -1.5354227 2.9014642
4.2366481 -1.1035482 1.6128724
4.4829483 -1.1668744 1.2079716
4.471168 -1.1638108 0.73660249
0.041133787 -0.022684306 3.8641264
2.7468183 -0.77437836 18.142319
3.5968771 -0.9959209 17.966743
3.0637603 -0.8322534 10.19656
3.3798678 -0.90931559 8.3051739
4.958415 -1.3266606 9.473732
5.5368505 -1.4752426 8.4882889
3.8738725 -1.0299753 4.8758006
0.22601163 -0.075045392 3.9578137
0.40752956 -0.11934047 3.9173565
3.5410209 -0.9632709 10.033549
3.4420822 -0.92929107 7.43575
5.1599259 -1.3863825 8.8095741
3.5505998 -0.95131654 4.9421496
4.0788312 -1.0898175 4.655149
3.9312897 -1.0379096 4.0754347
7.7264247 -2.0356026 6.5249677
8.1419611 -2.1435676 5.6046171
5.7165456 -1.5028832 3.1805925
4.2872787 -1.1263275 1.8792703
4.5148864 -1.1852872 1.4620018
4.8174663 -1.2790854 4.5205107
7.2109456 -1.9119129 5.5155716
5.6063781 -1.4854276 3.4937961
5.8762746 -1.5536546 2.8972681
5.2874017 -1.3969758 1.9925231
4.4788475 -1.1825157 1.2079716
4.4814429 -1.1832035 0.73867452
0.041054357 -0.022827752 3.8641264
2.756799 -0.78759164 18.226286
3.5894575 -1.0073695 17.947163
3.0665929 -0.84452832 10.215648
3.3389776 -0.91082394 8.2131224
4.9121485 -1.3326721 9.3947287
5.5262341 -1.4930928 8.4800224
3.7774119 -1.0184581 4.7606754
0.2257483 -0.075833857 3.9578137
0.40711051 -0.1207623 3.9173565
3.5459545 -0.9779197 10.057013
3.42202 -0.93670207 7.3997402
5.1651206 -1.4071279 8.8266373
3.5327182 -0.95975441 4.9221992
4.0815458 -1.1058217 4.6624994
3.9173079 -1.0488588 4.0649209
4.6583171 -1.2446702 3.9702637
8.134428 -2.1719751 5.6046171
5.7369461 -1.5296764 3.1945055
4.6451526 -1.2368343 1.5028927
4.9031062 -1.3201631 4.6036482
7.2979088 -1.9622616 5.5862074
5.6261377 -1.5117003 3.5089951
6.0023255 -1.6094199 2.9602096
5.5561686 -1.4887549 2.0911336
4.4772854 -1.1988394 0.73867452
0.041006453 -0.022913685 3.8641264
2.7558897 -0.79357868 18.231224
3.5990968 -1.018212 18.005907
3.0721579 -0.85241014 10.239508
3.3315711 -0.9156791 8.1993151
4.7457824 -1.2964307 9.0831041
5.4964671 -1.4953481 8.438693
3.754154 -1.0185153 4.7338128
0.2256422 -0.076148987 3.9578137
0.40643081 -0.12117778 3.912385
3.5447571 -0.98225111 10.057013
3.4292691 -0.94319171 7.4177456
5.1737065 -1.4152887 8.8437014
3.5171764 -0.95948792 4.9022493
4.0903935 -1.1120514 4.6735249
3.9151025 -1.057061 4.0649209
4.6333685 -1.2475392 3.9514332
8.1867723 -2.2027984 5.6429973
5.789885 -1.5546207 3.2246499
5.6854992 -1.5244753 1.8201501
5.0155587 -1.3429687 1.0772517
4.901258 -1.3270079 4.6036482
7.3345261 -1.9817193 5.6156392
5.7033601 -1.5399233 3.5571256
5.9521503 -1.6037632 2.9371309
5.4950681 -1.479581 2.069768
4.1354742 -1.1119553 1.1235647
4.5429778 -1.2215294 0.748344
0.040914141 -0.023078112 3.8641264
2.7555244 -0.80598843 18.250982
3.5889289 -1.0315908 17.976534
3.075592 -0.86783385 10.263368
3.3839896 -0.94598812 8.3373909
4.7121606 -1.310253 9.0304346
5.4814887 -1.5180216 8.4262943
3.6504514 -1.0088713 4.6110125
0.22525388 -0.077290088 3.9578137
0.40581226 -0.12323335 3.912385
3.5296023 -0.99798054 10.028856
3.434763 -0.96407598 7.4402514
5.1835566 -1.4481728 8.8735628
3.4945176 -0.97365075 4.8783092
4.0612545 -1.1285251 4.6477985
4.5830522 -1.2546037 3.9137719
8.3509026 -2.2845166 5.7608805
5.6890364 -1.5541859 3.1736362
5.5419159 -1.5129596 2.4093387
5.2021174 -1.4192221 1.6749167
5.0094128 -1.3657147 1.0772517
7.2737446 -2.0048542 5.5773778
5.6830244 -1.5653362 3.549526
5.737401 -1.578173 2.160161
4.1432595 -1.1388994 1.1270816
4.5360842 -1.2468829 0.748344
0.040853582 -0.023185145 3.8641264
2.761744 -0.81513941 18.305315
3.5883534 -1.0409247 17.986324
3.0806403 -0.8773911 10.287227
3.4890118 -0.98389089 8.5997343
4.6469145 -1.3034756 8.9119301
3.6205418 -1.0087715 4.5764747
0.22510509 -0.0777224 3.9578137
0.40557492 -0.12401223 3.912385
3.5477717 -1.0098089 10.085169
3.4540243 -0.9759894 7.4852633
5.1963391 -1.4605476 8.8991575
3.4784768 -0.97507179 4.8583589
4.0725365 -1.1385545 4.6624994
4.6125326 -1.2782536 4.7833529
4.5722489 -1.2645226 3.9074948
8.3694792 -2.311594 5.7773294
5.6339774 -1.5539478 3.1458106
5.55161 -1.5301919 2.4149578
5.6290131 -1.5494182 1.8060497
5.0394554 -1.386197 1.0837799
4.575551 -1.2723106 4.3110042
7.2231474 -2.005837 5.5420604
5.6384706 -1.5647167 3.5241942
5.8402095 -1.6174167 2.888876
5.7121596 -1.5808855 2.1519434
4.1039877 -1.135041 1.1177031
4.8780041 -1.3481991 0.79807293
0.040772405 -0.02332761 3.8641264
2.7521818 -0.82277095 18.26086
3.5837209 -1.0531569 17.98143
3.0718222 -0.88648337 10.26814
3.6431637 -1.0417961 8.9863472
4.6052485 -1.3100135 8.8417053
3.6351476 -1.027899 4.5995002
0.22453289 -0.078489758 3.9528222
0.40509576 -0.1255686 3.912385
3.5370581 -1.0221258 10.066399
3.4333386 -0.98504353 7.4492536
5.2202692 -1.4908962 8.9503498
3.4482801 -0.98220426 4.8224487
4.0677319 -1.1556034 4.6624994
4.5908761 -1.2895243 4.76583
4.5790505 -1.2836268 3.9169099
5.0391579 -1.4116676 3.5156198
5.645308 -1.579361 3.1550858
5.5459642 -1.5505292 2.4149578
5.493659 -1.5348774 1.7665689
4.9870262 -1.3914564 1.0744538
4.5704069 -1.2906677 4.3110042
7.1372318 -2.0128729 5.4831967
5.7026796 -1.6072181 3.5672584
5.8424077 -1.6433057 2.8930721
5.5375657 -1.5565234 2.0911336
4.1415143 -1.1633364 1.1282539
4.8675461 -1.3672807 0.7973823
0.040690728 -0.023469791 3.8641264
2.7463186 -0.83147198 18.241104
3.5809987 -1.0659505 17.986324
3.0959308 -0.90516084 10.358808
3.6451342 -1.0561379 9.0001545
3.6870353 -1.0627258 7.0992403
4.5229831 -1.2985837 6.9838958
3.6376996 -1.0423477 4.6071749
0.22425754 -0.079273045 3.9528222
0.40465498 -0.12698188 3.912385
3.4277887 -0.99641442 7.4447527
5.1924858 -1.5025842 8.9119558
3.4477255 -0.99507058 4.8264389
4.0343528 -1.1613547 4.6294231
4.5348969 -1.2908955 4.7132616
4.5707979 -1.2985393 3.9137719
5.5852757 -1.5857073 3.8912005
5.5360584 -1.5686152 2.4130847
5.2574883 -1.4886969 1.6960672
4.9821382 -1.4088559 1.0744538
4.576643 -1.3096956 4.3209805
7.1185026 -2.0344419 5.4743671
5.6514387 -1.6140918 3.5393932
5.5922146 -1.5940181 2.7755811
5.7183003 -1.6288847 2.1585174
4.1374278 -1.1777859 1.1282539
4.9151349 -1.3991774 0.8049798
0.040608551 -0.023611683 3.8641264
2.7411711 -0.84037 18.226286
3.5782309 -1.0787379 17.99122
3.1628828 -0.93673569 10.592634
3.6432998 -1.0694056 9.0047569
3.7039938 -1.0816318 7.138742
4.5184226 -1.314364 6.9838958
3.6155703 -1.0496771 4.5841498
0.223708 -0.079957053 3.9478304
0.40420926 -0.12839364 3.912385
3.4201131 -1.0071435 7.43575
5.1897116 -1.5214338 8.9162226
3.4326627 -1.0037165 4.8104787
4.0725827 -1.18777 4.6771998
4.5372162 -1.3086941 4.7202711
4.5999007 -1.3241775 3.9420176
5.4390612 -1.5647316 3.7952492
6.3238697 -1.8169003 3.5307314
5.5572844 -1.5956064 2.4243228
5.8470788 -1.6777139 1.8779614
5.0433006 -1.4451827 1.0875105
4.6401787 -1.3454194 4.3841653
7.1074758 -2.0581534 5.4714246
5.7699971 -1.6697594 3.6153886
5.6040578 -1.6185664 2.7839732
5.4993429 -1.5872875 2.0812726
4.1893344 -1.2083864 1.1423218
4.9911089 -1.4396579 0.81672138
0.040525887 -0.023753291 3.8641264
2.7359948 -0.84924209 18.21147
3.5754178 -1.0915191 17.996117
