# .PCD v0.7 - Point Cloud Data file format
VERSION 0.7
FIELDS x y z
SIZE 4 4 4
TYPE F F F
COUNT 1 1 1
WIDTH 1611
HEIGHT 1
VIEWPOINT 0 0 0 1 0 0 0
POINTS 1611
DATA ascii
6.5149455 18.046625 12.663892
8.7463226 24.254068 13.582728
9.0778904 25.187283 10.905416
9.6699686 26.844717 8.4769144
10.14027 28.181149 5.777657
10.529537 29.262964 2.8849373
4.5166054 12.429641 11.85989
6.448297 17.764875 13.844715
8.8096504 24.283499 15.265478
8.8827171 24.524929 12.145483
9.472168 26.166628 9.774538
9.9451456 27.48819 7.1410699
10.315789 28.512632 4.3212318
10.903285 30.152893 1.3870909
2.2302613 5.8780088 30.248869
3.2819102 8.843997 22.283039
3.0216949 8.177722 16.044184
3.0745511 8.3475895 13.137856
2.7716846 7.3316851 30.214848
6.512085 17.566975 30.715145
5.7433023 15.559686 18.058474
5.7894287 15.829059 16.642736
4.445488 12.174304 10.532776
8.9117384 24.418575 17.126999
8.8385172 24.2442 13.594322
9.1673422 25.159798 10.907289
9.7701807 26.828829 8.4825544
10.248655 28.173279 5.7832532
10.611191 29.169872 2.8795724
4.5586772 12.410295 11.856564
6.5395098 17.821947 13.906523
8.9032669 24.276882 15.280677
8.9760733 24.515081 12.155973
9.5780535 26.173317 9.7893295
10.049385 27.476133 7.1469321
10.415254 28.47645 4.3212318
11.046207 30.217878 1.3915244
2.2507658 5.8701878 30.248869
3.0485463 8.1626368 16.035406
3.098762 8.3236208 13.117192
2.79726 7.3219652 30.214848
6.5733652 17.544136 30.715145
5.8582516 15.84555 16.681288
4.5796094 12.407015 10.746191
6.7087965 18.185083 12.792741
8.9322834 24.23814 13.608235
9.2711325 25.171144 10.926019
9.8637714 26.794559 8.4825544
10.277425 27.948305 5.7450156
10.757635 29.254177 2.8911965
4.6071687 12.408307 11.869866
6.5510774 17.66258 13.800569
9.001441 24.282034 15.303475
9.0804968 24.534679 12.18115
9.6759109 26.15744 9.7959042
10.136805 27.418091 7.1410699
10.548936 28.532818 4.3350453
11.182788 30.263485 1.395152
2.2712429 5.8622952 30.248869
3.1142354 8.250536 16.228525
3.1208606 8.2943153 13.088261
2.8232541 7.3133287 30.219687
5.8985472 15.784917 16.639233
4.6432986 12.445654 10.793269
6.7605457 18.130213 12.770809
9.0245667 24.227568 13.619829
9.3718805 25.173388 10.941004
9.9706259 26.795935 8.4938354
10.35267 27.8524 5.7328916
11.033192 29.683241 2.9359043
4.6688199 12.44109 11.916423
5.5286951 14.74802 11.551994
9.0876589 24.254503 15.306009
9.1835747 24.549589 12.204228
9.7737732 26.141197 9.8024788
10.184811 27.255053 7.1082454
10.731676 28.718481 4.3681979
11.293606 30.23831 1.3957567
2.2916923 5.8543315 30.248869
3.1643562 8.295558 16.338251
3.1427927 8.2649593 13.05933
2.849679 7.3057718 30.229366
5.964951 15.794257 16.670774
4.6798477 12.411161 10.777576
6.7574329 17.930426 12.647443
9.1184464 24.220793 13.633742
9.4678564 25.162212 10.950369
9.9982462 26.585857 8.4388437
10.451557 27.820692 5.7338238
11.11047 29.574621 2.9291983
4.6897097 12.365368 11.85989
5.5729809 14.709731 11.537277
9.1753206 24.230696 15.311076
9.2756319 24.534363 12.212621
9.8482714 26.062748 9.7860432
10.195739 26.996527 7.0508022
10.770619 28.518702 4.3440242
11.446723 30.3249 1.401198
2.3121138 5.8462963 30.248869
3.1924324 8.2822275 16.333862
3.1655674 8.2381783 13.034533
2.8751638 7.2957802 30.229366
5.960279 15.616741 16.50606
4.7397742 12.438396 10.815238
6.8036103 17.863749 12.617288
9.2092381 24.205378 13.643018
9.5671654 25.159342 10.96348
10.079056 26.519405 8.4289732
10.778757 28.390238 5.8569298
11.220706 29.554281 2.9309864
4.720818 12.317543 11.829961
5.5968342 14.618467 11.481358
9.2475204 24.166311 15.29081
9.3660755 24.514555 12.218915
9.9021273 25.93116 9.7498865
10.317642 27.03343 7.0695591
10.871868 28.485556 4.3447151
2.3325069 5.8381901 30.248869
3.2421839 8.3245926 16.439199
3.1881938 8.21134 13.009735
2.901078 7.2868671 30.234205
5.9454598 15.416163 16.316814
4.7859607 12.42904 10.821515
6.889955 17.902327 12.661151
9.3048029 24.202028 13.659249
9.6599188 25.138777 10.969098
10.138887 26.398977 8.4021826
10.928821 28.485441 5.883976
11.350559 29.584675 2.9376926
5.6434536 14.587534 11.472528
9.3209372 24.10574 15.273078
9.4581289 24.498648 12.227307
9.9075861 25.676161 9.6677103
10.452171 27.101557 7.0965223
10.983708 28.479776 4.3495498
2.3532526 5.8309565 30.253763
3.2116988 8.1870613 12.98907
2.926496 7.2766962 30.234205
5.7868786 14.850366 15.742068
4.7954445 12.3252 10.746191
6.9842296 17.960009 12.718721
9.3876219 24.165272 13.65693
9.7325096 25.066011 10.952241
10.532955 27.141573 8.6475286
11.028187 28.447119 5.883976
11.45736 29.554161 2.938587
4.7699599 12.190405 11.740171
9.3799257 24.008814 15.232547
9.5303926 24.431658 12.210524
10.050326 25.777805 9.7186594
10.55024 27.073963 7.0988669
11.088449 28.455107 4.3516221
2.3735924 5.8227062 30.253763
3.2361104 8.1653376 12.972538
2.9518788 7.2664361 30.234205
5.829535 14.806846 15.717537
4.8270464 12.279407 10.721085
6.9765401 17.756495 12.592614
9.4945765 24.190083 13.689393
9.9418459 25.342615 11.0871
10.613624 27.068913 8.6362486
11.304784 28.861265 5.9763055
11.571352 29.541809 2.9412694
4.8152294 12.180626 11.746823
5.5313611 14.006416 11.048713
9.5111561 24.096218 15.308542
9.6239386 24.419355 12.221013
10.152361 25.773321 9.7301636
10.658926 27.073151 7.1082454
11.202222 28.453089 4.3571472
2.393903 5.8143854 30.253763
3.2614551 8.1461535 12.960139
2.9767485 7.2549257 30.229366
5.8983197 14.829486 15.763096
4.8569503 12.229924 10.692839
9.67029 24.36232 17.269554
9.587122 24.177385 13.700988
10.136149 25.574963 11.203228
10.715114 27.049536 8.6418886
11.383769 28.766817 5.9651136
11.679898 29.515129 2.9426105
4.9020309 12.274702 11.853239
5.5517607 13.915692 10.992793
9.6191607 24.122932 15.34654
9.9592648 25.013884 12.533623
10.244012 25.742115 9.7318077
10.767735 27.071915 7.1176243
11.312454 28.441422 4.3612914
12.040664 30.287642 1.4084531
2.4145753 5.8069344 30.258659
3.2856505 8.1242857 12.943608
3.0020547 7.2444901 30.229366
5.9473891 14.802189 15.756087
4.877872 12.15871 10.645761
9.7412653 24.293488 17.244883
4.1713252 10.413307 5.9585147
10.197791 25.470564 11.173259
10.878977 27.185663 8.6968803
11.504173 28.777079 5.9753723
11.788401 29.48805 2.9439518
4.9448476 12.257516 11.853239
5.589726 13.869986 10.972191
9.7371311 24.173178 15.399736
10.349658 25.745632 9.7465992
10.874853 27.065733 7.1258302
11.422743 28.429331 4.3654356
12.140729 30.231518 1.4078486
2.4348307 5.7984705 30.258659
3.3107967 8.1049509 12.931209
3.0273244 7.2339668 30.229366
4.3185821 10.640839 11.364891
4.9246693 12.15243 10.655176
9.8401337 24.294214 17.269554
4.1893716 10.353513 5.9330082
10.324878 25.529364 11.214466
10.984593 27.17421 8.7053404
11.52914 28.549997 5.9371352
11.896855 29.460577 2.9452932
4.9270191 12.091499 11.710242
5.5908637 13.734335 10.880953
4.8225098 11.852743 7.6051455
4.1565366 10.231251 5.1925373
10.448346 25.731224 9.7548161
10.98206 27.059135 7.1340365
11.534945 28.421404 4.3702703
12.255572 30.212103 1.4088562
2.4554536 5.7908735 30.263554
3.3347752 8.0829391 12.914677
3.0530462 7.2245131 30.234205
4.3556991 10.6257 11.364891
4.9582129 12.113553 10.636346
7.0258684 17.173597 12.249931
4.1634774 10.187105 5.8472123
10.503338 25.712042 11.309991
11.088448 27.157906 8.7123899
11.56936 28.364031 5.9072914
12.005261 29.432703 2.9466343
4.8512511 11.787644 11.434225
5.6602902 13.767074 10.922158
4.7475176 11.552742 7.4252896
4.192225 10.21668 5.1925373
10.548852 25.72081 9.764678
11.089352 27.052116 7.1422424
11.643476 28.403877 4.3737235
12.360958 30.169138 1.4088562
2.4756527 5.7822671 30.263554
3.3586404 8.0608597 12.898146
3.0782459 7.2138124 30.234205
4.4268675 10.692806 11.452504
7.001142 16.944145 12.104632
4.1990118 10.17251 5.8472123
10.607171 25.709507 11.324975
11.194153 27.145643 8.7208509
11.715076 28.437021 5.9306068
12.115516 29.409035 2.9484227
4.7533617 11.436203 11.111652
5.7176118 13.769628 10.939816
9.9913864 24.073872 15.40227
4.2035365 10.143284 5.1631646
10.649413 25.710005 9.774538
11.19487 27.040192 7.1492767
11.767179 28.422543 4.3827024
12.464283 30.121191 1.4086547
2.4962256 5.7745247 30.26845
4.1853828 9.8128691 34.151917
3.3823919 8.0387115 12.881613
3.1039054 7.2041774 30.239044
4.458663 10.664127 11.438486
5.3065825 12.710809 11.188714
7.1777954 17.201307 12.304759
4.3026752 10.321341 5.9399643
10.707547 25.697998 11.336213
11.299905 27.132973 8.729311
11.819929 28.409559 5.9334044
12.221924 29.375759 2.9493167
5.2657971 12.545329 12.19909
5.0813379 12.123627 7.8103328
4.2389178 10.12855 5.1631646
10.750028 25.698814 9.7844
11.302314 27.032337 7.1574831
11.879692 28.413275 4.3875375
12.553939 30.040625 1.4070424
2.5163672 5.7657762 30.26845
4.2290578 9.8201351 34.228271
3.4060299 8.0164957 12.865082
3.1295354 7.1944518 30.243885
4.5152802 10.694493 11.48755
5.4008179 12.810566 11.292283
7.1582332 16.987337 12.170428
4.3403959 10.310342 5.9422832
10.818762 25.711744 11.358689
11.388968 27.080097 8.7250805
11.896192 28.313782 5.9222131
12.332106 29.351282 2.9511051
4.7937431 11.309921 11.021864
6.0027328 14.176023 11.292995
5.140429 12.145514 7.8356647
4.26718 10.09697 5.1547723
10.85253 25.691584 9.7959042
11.407949 27.019587 7.1645164
12.177197 28.84153 4.4586773
2.5368888 5.7578888 30.273344
4.2591438 9.7957306 34.194866
3.4306633 7.9967995 12.852682
3.1546297 7.1834841 30.243885
4.1346951 9.5824251 17.140944
4.5805554 10.744279 11.557641
5.4637971 12.834611 11.329945
6.5855374 15.477072 11.112222
4.3555632 10.246207 5.9144578
10.924762 25.712223 11.375547
11.483427 27.040178 8.7250805
12.942733 30.505997 6.3829279
12.430596 29.298887 2.9502108
5.4737163 12.789736 12.471781
6.0442348 14.136402 11.27828
4.4899254 10.506227 6.7995944
4.3113055 10.102884 5.1652627
10.955113 25.68395 9.8074083
11.515539 27.010899 7.1727228
12.301103 28.853512 4.4669652
2.5569723 5.7489986 30.273344
4.2879114 9.7685022 34.151917
3.4563198 7.9796114 12.844417
3.1801946 7.1735768 30.248722
4.1670766 9.5655432 17.136677
4.6448226 10.790462 11.624227
5.4931946 12.779701 11.29856
6.6246667 15.419413 11.087549
10.335334 24.079378 13.803015
11.029069 25.708014 11.390531
11.534263 26.898525 8.6926498
12.056815 28.144251 5.9044938
12.556326 29.310251 2.9555759
5.5198088 12.773979 12.475107
5.963778 13.814629 11.039884
10.360693 24.011181 15.452933
4.3573208 10.112782 5.1778512
11.057775 25.675913 9.8189135
11.623207 27.001791 7.1809287
12.34888 28.687588 4.4483171
2.5774415 5.7409673 30.278242
4.3237987 9.7575712 34.166237
3.4897902 7.9803896 12.865082
3.2057295 7.1635799 30.253563
4.1993914 9.5485516 17.13241
4.830193 11.024517 13.126403
4.7251048 10.872305 11.729364
5.5470676 12.781871 11.31739
6.6717939 15.380849 11.076583
10.433415 24.07567 13.821565
11.127954 25.69063 11.399896
11.567097 26.71723 8.6475286
12.041877 27.840494 5.8504014
12.666468 29.284525 2.9573643
5.5807877 12.792278 12.511688
5.9457493 13.641809 10.919214
4.3708687 10.047569 5.1526742
11.160514 25.667471 9.8304176
11.730952 26.99226 7.1891356
12.431178 28.603432 4.442101
2.5974655 5.7319355 30.278242
4.3590508 9.745142 34.175777
3.5119433 7.9552875 12.844417
3.2307155 7.1523461 30.253563
4.8686461 11.007588 13.126403
4.7415338 10.806759 11.676795
5.6260157 12.840864 11.386436
6.7019596 15.303844 11.038202
4.4093528 10.078282 5.8448935
11.237994 25.698351 11.4205
11.660287 26.676691 8.6475286
12.270696 28.099909 5.9128871
12.782563 29.272078 2.9604938
5.620892 12.762468 12.50171
5.9575176 13.539576 10.854465
4.634407 10.537554 6.8502584
4.4113898 10.044717 5.1589684
11.263328 25.658623 9.8419218
11.840725 26.986755 7.198514
12.550843 28.605213 4.449008
13.365245 30.475794 1.4360629
2.6174579 5.7228336 30.278242
4.3899698 9.7230644 34.151917
4.0711861 9.1356173 14.762104
3.2556622 7.1410255 30.253563
4.9015117 10.978145 13.111702
4.7821164 10.796663 11.683805
5.6849737 12.853184 11.414683
6.7688651 15.310952 11.060135
4.4731417 10.127665 5.8819942
4.6697907 10.577879 4.759995
11.650695 26.403219 8.5727968
12.424191 28.18276 5.9390006
12.8927 29.245508 2.9622822
2.5330606 5.6974764 5.6345534
6.0063848 13.522393 10.857408
4.81285 10.840448 7.0554457
4.4648199 10.070747 5.1799493
11.370043 25.658007 9.8567142
11.948633 26.976366 7.2067199
12.642596 28.543116 4.4462452
13.394691 30.255362 1.4284047
2.6374183 5.7136621 30.278242
4.4269781 9.7144737 34.175777
4.1088233 9.1341829 14.78277
3.2805691 7.1296177 30.253563
4.9216948 10.92079 13.063926
5.1210923 11.453824 12.409245
5.7123499 12.794166 11.380159
7.6589699 17.162086 12.406195
4.5319171 10.164585 5.9121389
4.7482014 10.654671 4.8012013
11.879421 26.66913 8.6714993
12.554446 28.211027 5.9539223
12.996731 29.204874 2.962729
2.5468178 5.6749735 5.6212511
6.0568576 13.508721 10.863295
4.8964982 10.925862 7.1213083
4.5500031 10.166951 5.2365966
11.474963 25.652647 9.8698626
12.058598 26.969994 7.2160988
12.758324 28.534977 4.4517708
13.353454 29.880013 1.4138944
2.6577766 5.7053437 30.283136
4.463356 9.7043858 34.194866
4.1464992 9.132596 14.803435
3.3054361 7.1181226 30.253563
5.2123866 11.549647 12.531904
7.7136765 17.123808 12.397969
4.7182636 10.483988 6.1045995
4.7663455 10.595753 4.7824712
11.984246 26.653751 8.6799593
12.632717 28.122223 5.9445963
13.100636 29.163872 2.9631763
2.5820181 5.7000599 5.6545062
6.1073074 13.494862 10.869181
4.934607 10.908703 7.1213083
4.6265688 10.242001 5.2827539
11.585814 25.659777 9.8879404
12.166662 26.958748 7.2243052
13.053408 28.92358 4.5180755
13.628181 30.211205 1.4306215
2.6776757 5.6960316 30.283136
4.5066309 9.7090559 34.266449
4.1853862 9.1334152 14.828232
3.3302629 7.1065416 30.253563
2.4512281 5.3813314 5.890789
5.9433546 13.065757 11.656344
4.7475028 10.451322 6.095324
11.595704 25.538939 11.4205
12.740947 28.100325 5.9492593
13.192075 29.095287 2.9609406
5.5765266 12.197162 12.026165
6.1896439 13.550669 10.930987
4.8526988 10.628676 6.9515853
4.662292 10.225788 5.2827539
11.683145 25.636366 9.8945141
12.278827 26.955927 7.2348557
13.119393 28.801231 4.5063343
13.793591 30.295307 1.4364659
2.6975424 5.6866498 30.283136
4.5404944 9.6932659 34.266449
4.2314177 9.1493998 14.877828
3.3555863 7.0960088 30.258402
2.4133909 5.2496133 5.7576165
5.9856782 13.037856 11.650067
7.9586005 17.343168 12.595355
11.584352 25.279156 11.323102
12.915166 28.196205 9.2059011
12.814429 28.002079 5.9380679
13.32257 29.112461 2.9672
5.6049891 12.147109 11.996236
6.2352142 13.525309 10.928043
4.9258518 10.689976 7.0022488
4.7415943 10.30428 5.3310089
11.794267 25.64262 9.9125929
12.370815 26.908484 7.2336831
13.006791 28.291826 4.435194
13.915947 30.283295 1.4380782
2.717376 5.6771989 30.283136
4.5717511 9.6719599 34.24736
4.2514272 9.1090727 14.836497
3.3803353 7.0842524 30.258402
8.1006927 17.324724 20.811172
2.4091864 5.1926322 5.7050486
6.0982423 13.16168 11.778744
8.017334 17.311487 12.592614
4.62503 9.9957914 5.85185
11.66474 25.221733 11.31561
12.886698 27.876629 9.1170692
12.807052 27.729738 5.8905044
13.444989 29.110989 2.9716709
5.6646938 12.164701 12.032815
6.2875042 13.514457 10.936873
4.9994912 10.750893 7.0529122
4.777534 10.287665 5.3310089
11.891657 25.618427 9.9191675
12.523993 26.993002 7.2676806
13.159658 28.363047 4.4531517
14.032078 30.257191 1.4390857
2.7371767 5.6676793 30.283136
4.2987857 9.1272726 14.890226
3.4055891 7.0735431 30.263243
8.1929455 17.363794 20.892027
2.4439321 5.219718 5.7435985
2.6374593 5.6407075 5.1032467
7.9874201 17.090202 12.452799
4.6523962 9.9635305 5.8425746
11.774276 25.227072 11.336213
12.758811 27.348932 8.960556
12.86434 27.600269 5.8727846
13.565458 29.104502 2.9756944
2.6216519 5.5789728 5.5713687
7.8085198 16.631691 13.462105
5.0571332 10.776302 7.0807776
5.0618634 10.801066 5.6016579
4.9539919 10.57568 4.1537375
12.61608 26.944721 7.2665086
13.283783 28.370756 4.4614401
14.1482 30.230652 1.4400935
2.7569437 5.6580901 30.283136
3.4308088 7.0627427 30.268082
5.0487647 10.604117 12.810339
2.5002248 5.2917662 5.831212
2.6438456 5.6033058 5.0781393
5.287694 11.211591 8.211751
4.6720414 9.9151716 5.8240247
11.844485 25.148071 11.319356
12.517063 26.588104 8.7279005
13.138319 27.933029 5.9520569
13.683927 29.093023 2.9792712
2.6411102 5.5697875 5.5713687
7.7799997 16.421692 13.314946
5.1020985 10.774168 7.09091
5.0665507 10.713582 5.5659909
4.996932 10.571131 4.158668
12.687216 26.852173 7.253613
13.406006 28.373466 4.4690375
14.176832 30.018452 1.4328383
2.7771266 5.6493459 30.288033
6.6183209 13.801296 22.552713
3.4554415 7.050724 30.268082
5.0490479 10.510034 12.71846
7.4268084 15.577735 17.038752
2.6834674 5.6362147 5.1158009
5.3034387 11.143982 8.1761122
11.930205 25.102385 11.317483
12.47806 26.266939 8.6376591
13.284187 27.989067 5.9735074
13.798209 29.072075 2.9819534
2.6025205 5.4392834 5.4516501
7.8233285 16.365263 13.291402
4.4259882 9.2626982 6.1181693
5.2055559 10.908826 5.6750894
5.0256696 10.536574 4.1520939
12.971224 27.206985 7.3602939
13.522015 28.362257 4.4745631
14.217052 29.833479 1.4267924
2.7968295 5.6396174 30.288033
4.1448689 8.4610653 30.167313
6.6676817 13.780642 22.556847
3.4805892 7.0397458 30.272919
5.0723958 10.46489 12.685383
7.4811397 15.551716 17.038752
2.703125 5.6268129 5.1158009
5.2137938 10.857776 7.9814677
4.5610304 9.5068827 5.6060572
12.156072 25.349018 11.446722
12.540643 26.162657 8.617918
13.405146 27.991259 5.9837661
13.912512 29.050682 2.9846361
2.6117516 5.4099913 5.4316974
7.9524026 16.48712 13.412071
4.4414444 9.212244 6.0953703
5.30267 11.013266 5.7380309
12.313717 25.586058 9.9717598
13.118792 27.271046 7.3896017
13.627375 28.32827 4.476635
14.351415 29.846708 1.4296139
2.8169541 5.6307306 30.292927
4.1611509 8.4197817 30.071873
6.6885862 13.70165 22.465921
3.5057025 7.0286784 30.27776
5.0835757 10.395347 12.622906
2.5913174 5.3390865 5.9118171
2.7159588 5.603333 5.1032467
5.1878524 10.707805 7.8855166
4.5903282 9.4829302 5.6014199
12.216215 25.248009 11.4205
12.832396 26.533304 8.7532816
13.524143 27.988527 5.9930925
14.022497 29.019875 2.9864242
5.3529282 10.989828 10.968656
8.078886 16.601006 13.526855
4.3604345 8.9640951 5.9433804
5.3430643 10.998772 5.7401295
12.363763 25.46221 9.9405327
13.226639 27.251322 7.3966355
13.732663 28.293896 4.4787068
14.468596 29.8234 1.4308231
2.8370504 5.6217723 30.297821
4.1991744 8.4225712 30.133907
3.5302155 7.0163984 30.27776
4.0037193 8.1010513 12.040402
5.1603303 10.459626 12.722136
2.6083701 5.3268056 5.9083123
2.7303717 5.5833282 5.0938311
5.0562582 10.344019 7.6333017
4.5748019 9.3673382 5.5434499
12.22089 25.034405 11.343705
12.962802 26.56595 8.7786617
13.595927 27.888161 5.9819007
14.167356 29.060278 2.9953659
5.3846703 10.957671 10.955354
8.2917671 16.888363 13.782909
4.3916988 8.9488201 5.9433804
5.1736965 10.556214 5.5219316
12.643694 25.809032 10.091736
13.338784 27.23991 7.406014
13.826987 28.236891 4.4773254
14.629715 29.889383 1.4360629
2.8571188 5.6127429 30.302717
4.2265368 8.403862 30.119593
3.5552547 7.0051532 30.282598
4.0319729 8.0870266 12.040402
5.1922779 10.432443 12.711109
2.6285279 5.3208661 5.9118171
2.7395117 5.5528202 5.0750008
5.0424008 10.225051 7.5592823
4.6387982 9.4148903 5.5805507
5.2028685 10.564359 4.8461542
13.072405 26.55497 8.7899418
13.634657 27.721519 5.9567199
14.295086 29.064274 3.000731
2.8705876 5.7904658 5.837409
8.2358484 16.627506 13.594547
4.4037819 8.8948021 5.9180484
5.1863742 10.489271 5.4967551
12.777645 25.853642 10.126249
13.420871 27.167036 7.3989801
14.742806 29.856049 1.4368689
2.8766935 5.6027355 30.302717
4.2598982 8.3970451 30.148224
5.1857176 10.360284 13.94766
3.5796854 6.9927001 30.282598
4.0601768 8.0729036 12.040402
5.2256198 10.408196 12.703759
2.6693547 5.3563433 5.9608803
2.7727525 5.5710998 5.1001081
5.0910997 10.233593 7.5784726
4.7564182 9.5692139 5.6802592
5.3779173 10.824299 4.9716473
13.175688 26.530659 8.7969923
13.659288 27.528545 5.9259439
14.429653 29.081108 3.007437
2.6786821 5.3563008 5.4150705
8.2251844 16.461258 13.482707
4.4270988 8.8639498 5.9079151
5.1378736 10.300527 5.408637
12.882563 25.838465 10.137753
13.465755 27.019966 7.3720169
14.860302 29.83124 1.4380782
2.8967013 5.5935636 30.307611
4.2939434 8.3914242 30.181629
5.2247396 10.347842 13.955336
3.6046498 6.9812799 30.287439
4.741219 9.3294725 17.187868
4.0801525 8.0425587 12.016462
5.2619195 10.389892 12.703759
2.6880355 5.346993 5.9608803
2.7939289 5.5648661 5.1032467
5.1549234 10.271817 7.6195941
4.7560372 9.4852333 5.6408396
5.415668 10.80546 4.9716473
13.287555 26.523106 8.8096828
13.964177 27.898005 6.0145426
14.548909 29.066191 3.0110137
2.6620464 5.2769127 5.3452349
6.8398895 13.57017 11.14878
4.4560733 8.844593 5.9053822
4.8494458 9.637908 5.0750465
13.004504 25.856621 10.162407
13.514143 26.881601 7.3473983
2.916209 5.5834179 30.307611
4.3204699 8.3710794 30.16254
3.981797 7.7880044 16.096853
5.2491918 10.306692 13.924636
3.6289968 6.9686546 30.287439
4.7749453 9.3151855 17.192133
4.1082015 8.0282669 12.016462
2.716361 5.3566608 5.9819074
2.8397155 5.6071644 5.1503234
4.6711555 9.2353506 5.5040302
13.308656 26.335276 8.7631512
14.061475 27.849089 6.0145426
14.670484 29.055241 3.0150375
2.6855302 5.2775712 5.3552113
6.87989 13.531801 11.137009
4.4830136 8.8212986 5.9003162
4.8666263 9.5885448 5.0582623
13.11391 25.84897 10.177198
13.570522 26.760567 7.3274684
2.9356811 5.5732045 30.307611
4.3503537 8.3572712 30.167313
4.0089579 7.7740579 16.096853
3.6532998 6.9559445 30.287439
4.7870698 9.2590771 17.119614
4.1320543 8.0058451 12.004492
7.5361819 14.626241 17.915142
2.8048766 5.4836721 6.1326032
2.8734369 5.6249485 5.1754313
12.302286 24.092672 17.820589
4.646996 9.1085033 5.4391036
5.295104 10.383307 4.7974553
13.365646 26.220278 8.740591
14.225481 27.931152 6.0425215
14.794417 29.048229 3.0195084
2.7158706 5.2914171 5.3784895
6.9197044 13.493317 11.125236
5.0572505 9.8785295 5.2177143
13.141675 25.681126 10.129537
13.734684 26.851509 7.3649831
2.955595 5.5638227 30.312508
4.3801932 8.3433571 30.172085
4.050437 7.7876382 16.153912
7.0683627 13.642208 18.472078
3.6775584 6.9431496 30.287439
4.7976556 9.2006855 17.042826
4.1585836 7.9887004 12.000503
7.6387811 14.699118 18.036423
2.8763244 5.5752659 6.2447486
2.8484843 5.5283837 5.0969696
12.407372 24.090475 17.850746
4.7476768 9.2261477 5.5179429
5.3270755 10.356517 4.7937098
13.459283 26.177729 8.7420006
14.356562 27.946869 6.0565109
14.918479 29.040707 3.0239789
2.7257419 5.2653255 5.3618622
6.9463358 13.429587 11.09286
4.8929367 9.4637384 6.3461556
5.1021132 9.8809795 5.2282043
13.222577 25.618315 10.122963
13.830558 26.807722 7.3661551
2.9754791 5.5543694 30.317402
4.4099889 8.3293352 30.176855
7.1025796 13.591885 18.43754
3.7017722 6.9302702 30.287439
4.8224592 9.1700335 17.017231
4.1878443 7.9768033 12.004492
7.614502 14.528233 17.860016
2.9204605 5.6126456 6.2973166
2.8372519 5.4596925 5.0436158
12.528011 24.117521 17.902834
5.0063663 9.6459475 5.7753301
5.4080267 10.424274 4.8330431
13.60358 26.232794 8.7758417
14.481144 27.948923 6.0677018
15.042668 29.032671 3.0284498
2.7441046 5.2557793 5.3618622
7.0436487 13.502018 11.172326
4.9199619 9.4351339 6.3385558
5.082068 9.7584505 5.173655
13.268312 25.48823 10.090093
13.95546 26.819647 7.3825674
2.9948494 5.5439491 30.317402
4.4397397 8.3152075 30.181629
3.8874357 7.3484731 15.302428
5.2389708 9.9283371 16.559938
3.7259407 6.9173064 30.287439
4.217073 7.9647989 12.008482
2.9516351 5.6245227 6.3218489
2.8364167 5.4118333 5.0090933
12.635407 24.118092 17.935732
5.1221805 9.7853985 5.8680816
5.5883803 10.680545 4.9585361
13.686173 26.168144 8.7702017
14.551316 27.845961 6.0565109
15.166984 29.02412 3.0329204
2.757215 5.2362571 5.3518858
7.2375336 13.756365 11.401893
5.0130615 9.5323639 6.4145513
5.088665 9.6884174 5.1463804
13.442808 25.604816 10.154189
14.067063 26.805202 7.3919463
3.014183 5.5334611 30.317402
4.4694457 8.3009729 30.186399
3.9243362 7.355989 15.34632
5.3687773 10.088849 16.85751
3.7506638 6.9053631 30.292278
4.2547846 7.968637 12.036412
3.0212963 5.7087455 6.4269853
2.884393 5.4569578 5.0593085
5.5134606 10.435195 7.8224626
5.0012026 9.4736509 5.6941719
5.9112182 11.202185 5.2057767
13.793099 26.149912 8.7800722
14.66904 27.834106 6.0649042
15.296067 29.023869 3.0382855
2.7719738 5.2200055 5.3452349
5.5520492 10.463979 8.7089005
5.0503445 9.5224228 6.4196177
13.576298 25.641203 10.187059
14.185555 26.803192 7.4048414
3.0339706 5.5237989 30.322298
4.4991069 8.2866335 30.191172
3.9477203 7.3380284 15.337542
5.4651704 10.184106 17.047626
3.7747452 6.8922286 30.292278
4.281146 7.9510841 12.032423
2.539856 4.725028 5.8936796
3.076468 5.7642341 6.5005803
2.9546897 5.5430303 5.1471853
5.5223246 10.364222 7.7840824
5.0363235 9.4600458 5.6964908
6.1005578 11.463866 5.3350158
13.875284 26.084663 8.7744312
14.779943 27.808762 6.0705004
15.420658 29.014275 3.0427563
2.7866528 5.2037144 5.3385835
5.1625938 9.6646652 5.1526742
13.701306 25.660305 10.213356
14.301915 26.796392 7.4165649
3.0527403 5.5122833 30.317402
4.5287218 8.2721882 30.195944
3.9698844 7.3178883 15.324375
5.4966683 10.157542 17.035227
4.458549 8.2494764 11.30362
3.7993882 6.8801107 30.297117
2.5547183 4.7131534 5.8900042
3.0238934 5.6184273 6.3498855
2.9555914 5.4983988 5.1158009
5.0609331 9.4267969 5.6872153
6.1493053 11.45884 5.3425078
13.995731 26.091026 8.7927618
14.86532 27.735352 6.0658369
15.547721 29.008551 3.0476742
2.8154452 5.2136679 5.3585367
5.504045 10.200859 8.5234814
4.7033377 8.7205172 5.9079151
5.1962981 9.6465855 5.1526742
13.824373 25.674688 10.238008
14.418403 26.789108 7.428288
15.546163 28.884457 4.6672626
3.0719631 5.5015936 30.317402
4.5575695 8.2563286 30.195944
3.9954047 7.3039861 15.324375
5.4862623 10.054307 16.894707
4.4781151 8.2169762 11.280595
3.8239927 6.8679047 30.301956
4.0437474 7.3739867 13.826312
5.3219814 9.7209301 14.749629
2.5662768 4.6952825 5.8789787
2.9720397 5.4761934 6.2026944
2.9747665 5.4880486 5.1158009
13.024699 24.038586 18.00975
5.1465321 9.5064631 5.7451854
6.1760287 11.412843 5.3312697
14.093568 26.054672 8.7969923
14.952702 27.666008 6.0621061
15.674931 29.002295 3.052592
2.8354125 5.207087 5.3618622
5.4855294 10.08217 8.4410725
4.8078942 8.8403788 5.9991097
5.2386045 9.6443415 5.1610665
13.949964 25.692675 10.264304
14.532693 26.777061 7.438839
15.646893 28.830013 4.6672626
3.0911486 5.4908371 30.317402
4.5870876 8.2416735 30.200716
4.0231891 7.294189 15.333152
5.5213246 10.035094 16.894707
4.4928775 8.176013 11.246058
3.8479428 6.8545141 30.301956
4.0644145 7.350697 13.809248
5.3092813 9.617877 14.621948
2.5777416 4.6773882 5.8679538
2.9055345 5.3093653 6.0274668
2.9360344 5.3717527 5.0185084
13.152637 24.073704 18.070063
5.2009101 9.5273218 5.7683735
6.1070199 11.191811 5.2394915
14.234964 26.097967 8.8280134
15.089144 27.686968 6.0779605
15.802285 28.995501 3.0575099
2.8571656 5.2037039 5.3685131
5.4973598 10.020435 8.405755
4.8407965 8.8273211 6.0016432
5.2395349 9.566287 5.1295962
14.066774 25.693531 10.284026
14.649407 26.76881 7.4505625
15.659469 28.614485 4.6417074
3.1107991 5.4808993 30.322298
4.615829 8.2256117 30.200716
4.0521183 7.2863803 15.34632
5.5413041 9.9886932 16.849245
4.5182829 8.1546726 11.238382
3.8724654 6.842135 30.306797
5.3040981 9.4868755 22.537323
4.078619 7.3159633 13.770854
5.0834365 9.1332617 13.915714
2.5973465 4.6742887 5.8753037
2.9171579 5.2867002 6.0134482
2.9284656 5.3137465 4.9745698
13.264836 24.07892 18.108444
5.2661762 9.5673199 5.8031554
6.146049 11.170424 5.2394915
14.35834 26.106964 8.8477535
15.230647 27.715927 6.0956807
15.927386 28.983809 3.0619807
2.877121 5.1969657 5.3718386
5.471652 9.8915415 8.314517
4.8715801 8.8103695 6.0016432
5.3145833 9.6234255 5.1694589
14.181479 25.689743 10.302105
14.766242 26.760067 7.462285
15.735332 28.516293 4.6348004
16.668329 30.219566 1.4858409
3.1304178 5.470891 30.327192
4.6445131 8.2094488 30.200716
4.0740137 7.265924 15.333152
5.57339 9.9643784 16.840979
4.5560999 8.1556416 11.261407
3.8969483 6.8296676 30.311636
5.3339739 9.4626131 22.523819
4.0696282 7.2402983 13.655675
5.0784211 9.0497684 13.815964
2.5970769 4.6356177 5.8385525
2.9338603 5.2733688 6.009944
2.9129655 5.2422504 4.9180779
3.6638548 6.5962524 5.0316505
5.4048729 9.7386703 5.9167762
6.173759 11.128633 5.2301264
14.495912 26.140589 8.8759546
15.255878 27.533688 6.0677018
16.052597 28.971592 3.0664513
2.887965 5.1738501 5.3585367
5.5022087 9.8653212 8.3086309
4.8498263 8.6991816 5.9383135
5.3768463 9.6563644 5.1967335
14.296329 25.685471 10.320184
14.885558 26.755085 7.4751806
15.892561 28.56505 4.6513767
16.708155 30.043316 1.4803996
3.1494956 5.4599304 30.327192
4.6731415 8.1931868 30.200716
5.6053734 9.9399595 16.832712
4.5876865 8.1452732 11.269082
3.9207644 6.8160229 30.311636
5.366972 9.4439363 22.523819
4.1013064 7.2373939 13.677005
5.1173983 9.0450983 13.835914
2.6015711 4.6058617 5.8128257
2.9068873 5.1822271 5.9188256
2.919832 5.2116766 4.8992472
5.7545109 10.275484 7.8060141
5.2679458 9.4143505 5.7335916
14.577706 26.073082 8.8703136
16.170631 28.945818 3.0695808
2.9169946 5.1832604 5.3784895
5.5267057 9.8284388 8.2939148
4.9033976 8.7235365 5.9661789
5.4105206 9.637536 5.1967335
14.413632 25.684832 10.339906
15.005016 26.749592 7.4880762
15.980061 28.487804 4.6479239
16.666319 29.723352 1.4683079
3.1690474 5.4497838 30.332088
4.7017126 8.1768246 30.200716
5.6205645 9.8860855 16.774851
3.9451632 6.8033829 30.316475
4.1498322 7.2637949 13.753792
4.1934566 7.3520389 11.282298
2.6125998 4.5879145 5.8018007
2.9232032 5.1689444 5.9153209
2.9533207 5.2285647 4.9243546
5.7944555 10.262617 7.8114972
5.2528901 9.3110256 5.6825781
14.685119 26.051291 8.8801842
15.744242 27.952957 6.1824145
16.296013 28.932585 3.0740519
2.9369125 5.1762943 5.381815
4.9338188 8.7063675 5.9661789
5.4374218 9.6067419 5.1904392
14.531105 25.683678 10.359628
15.124619 26.743591 7.5009718
16.135471 28.530991 4.6638093
16.996162 30.065109 1.4868486
3.1885657 5.4395671 30.336983
4.730226 8.1603632 30.200716
5.6396465 9.8395491 16.729389
3.9695218 6.7906551 30.321316
4.1751623 7.2492652 13.753792
4.207078 7.3164587 11.250378
2.6167836 4.5581861 5.7760744
2.9447615 5.1649055 5.9223304
2.9850368 5.2419004 4.9463239
5.6937189 10.002489 7.6305604
5.335731 9.3811941 5.7359104
14.231537 25.031731 11.722058
14.783077 26.012384 8.8844147
16.394445 28.871193 3.0736048
2.9568169 5.1692519 5.3851409
5.3003473 9.2737541 7.8612704
5.3619285 9.3852911 6.4373498
5.4281855 9.5128088 5.1505766
14.648745 25.682022 10.37935
15.244362 26.73708 7.5138669
16.374775 28.719706 4.7031779
17.18264 30.148836 1.4934992
3.2075343 5.4284034 30.336983
4.7594352 8.1450901 30.205488
4.101841 7.0819139 15.065419
5.6542487 9.7856922 16.671528
3.9932017 6.7767572 30.321316
3.8904264 6.6819305 16.051075
4.1834168 7.2053256 13.698334
4.2084126 7.2600179 11.186538
2.6326787 4.5490241 5.7760744
2.9840987 5.1916976 5.964385
3.0091298 5.2415752 4.9557395
3.7722454 6.5734673 5.0535822
5.3618345 9.3509836 5.7289538
14.318828 24.981901 11.722058
14.880941 25.973108 8.8886442
16.017101 27.978781 6.2122583
16.561928 28.930483 3.0856757
3.0867548 5.3529706 5.584671
5.326632 9.244688 7.8524408
5.4419899 9.448699 6.4930801
14.76655 25.679853 10.399072
15.364243 26.730059 7.5267625
16.395956 28.524982 4.681076
17.325109 30.153652 1.4965222
3.2264633 5.4171743 30.336983
4.787838 8.1284275 30.205488
4.1337819 7.0799623 15.091753
5.6756258 9.7440109 16.634331
4.0174747 6.7638578 30.326153
3.9093196 6.6607995 16.03307
4.6933436 8.0189886 15.268198
4.2337294 7.2452836 11.186538
2.6673336 4.5720172 5.8165011
3.002203 5.1812496 5.964385
3.0313072 5.2377772 4.9620161
3.7930741 6.5566401 5.0508409
5.3611894 9.274683 5.6941719
14.336364 24.811346 11.665867
16.08766 27.8759 6.2019992
16.690195 28.919939 3.0905936
3.1185565 5.364759 5.6079493
5.4867702 9.4462357 8.0378599
5.5333796 9.5302992 6.5614753
14.884518 25.677177 10.418795
15.481825 26.718325 7.538486
16.306738 28.141941 4.6285849
17.427753 30.088669 1.4963206
3.2453532 5.4058785 30.336983
4.8169441 8.1129484 30.210258
4.1487527 7.0489783 15.056642
5.6996303 9.7071543 16.6054
2.7833703 4.746151 6.6640773
4.04106 6.7497931 30.326153
3.9524987 6.6808376 16.11409
4.7425103 8.0384951 15.336452
4.232996 7.1863246 11.118707
2.6935885 4.5802121 5.8385525
3.0112767 5.1553411 5.9468617
5.444828 9.3439426 5.7475042
14.422884 24.76115 11.665867
16.152754 27.764378 6.1898756
16.851147 28.964815 3.1013238
5.6483774 9.6467724 8.223279
5.5513706 9.4848843 6.5437431
4.6639876 7.9783044 4.3596106
14.997882 25.665838 10.435229
15.601961 26.710285 7.5513811
16.449831 28.161818 4.641017
17.464659 29.91116 1.4908792
3.2642031 5.3945174 30.336983
4.8460016 8.0973654 30.215033
4.1855526 7.0550508 15.100532
5.6947799 9.6218147 16.493811
2.7950275 4.7281289 6.652565
4.0645971 6.7356462 30.326153
3.975795 6.6669998 16.11409
4.7705407 8.0218925 15.336452
4.2549777 7.1663218 11.110726
2.7285767 4.6028605 5.8789787
3.1722026 5.3875737 6.2237215
3.6518536 6.209599 5.8909993
5.7056751 9.7057352 7.4660726
5.7556214 9.7985096 6.0350351
14.574953 24.822592 11.718311
16.088043 27.4324 6.1292548
16.959707 28.918703 3.1026649
3.3097491 5.6032562 5.8773146
5.7724156 9.780158 8.3527784
5.5822549 9.4617348 6.5412102
4.6895046 7.958065 4.3575125
15.113745 25.658085 10.453308
15.707434 26.676603 7.5572433
16.57316 28.146896 4.6479239
17.513216 29.755297 1.4864457
3.2830138 5.38309 30.336983
4.8750081 8.0816793 30.219803
5.687963 9.5342112 16.378088
2.8098741 4.71559 6.6487274
4.0887375 6.7224913 30.330994
3.9956782 6.6474838 16.100586
4.7556052 7.9336104 15.199943
4.2753253 7.1436696 11.098757
2.7446268 4.593308 5.8789787
3.3875697 5.7076788 6.6022124
3.7409921 6.3106527 5.9977069
5.7331243 9.6749678 7.4578476
5.7469077 9.7059355 5.9909782
14.685122 24.811459 11.737042
16.048197 27.125246 9.3539553
16.263697 27.511389 6.1590986
17.088427 28.906481 3.1075828
3.3445692 5.6173344 5.9039187
5.8065195 9.7599497 8.3527784
5.7430477 9.6570892 6.6881347
4.7543397 8.0040808 4.3910813
15.220092 25.633595 10.464812
15.815341 26.64669 7.5642767
16.696585 28.13146 4.6548305
3.3017843 5.3715978 30.336983
4.903964 8.0658875 30.224577
5.7081575 9.4925947 16.340891
4.1121783 6.708178 30.330994
6.4392829 10.582682 33.741402
3.9974253 6.5981197 16.015064
4.297122 7.1235418 11.090776
2.7344072 4.5401378 5.8238511
3.4715533 5.8029332 6.7248716
5.2304463 8.7533751 8.3044729
5.7411313 9.6118183 7.4249506
14.79302 24.795879 11.7539
15.779144 26.459291 9.1452694
16.507988 27.703423 6.2141232
17.199419 28.863766 3.1093709
3.3737638 5.6216326 5.9205465
5.7615595 9.6078949 8.2409382
5.9828434 9.9808416 6.9237204
4.8451982 8.0925722 4.4477291
15.343428 25.637035 10.487822
15.888297 26.557955 7.5548983
16.84807 28.162249 4.6693344
3.3205147 5.3600392 30.336983
4.9328694 8.0499935 30.229347
5.6552014 9.3306265 16.097046
4.1362295 6.6948519 30.335833
6.4734778 10.555727 33.727325
4.0215678 6.5859847 16.019566
4.3172655 7.1007743 11.078807
2.7308874 4.4986877 5.7834244
3.4954712 5.7968874 6.7318802
5.2890844 8.781743 8.3484106
5.8177819 9.6633654 7.4797792
5.9058676 9.8174143 6.0837302
14.903374 24.783821 11.77263
15.770082 26.235485 9.0874586
16.660234 27.738274 6.2346411
17.346222 28.880398 3.1174183
3.4455442 5.6960797 6.0103345
4.1328368 6.8376503 5.9011254
6.1335678 10.151757 7.0554457
4.8452768 8.0289803 4.4225521
15.44746 25.607582 10.497683
16.24947 26.947712 7.6803365
16.953941 28.115986 4.6714067
19.046324 31.5984 1.5819713
3.3397431 5.3492794 30.341877
4.9617238 8.0339966 30.234121
4.6263318 7.5555696 16.303139
3.818815 6.2514453 10.831671
6.2314553 10.212882 14.400486
4.1595736 6.6803732 30.335833
6.5093775 10.531598 33.722633
3.9532511 6.4235888 15.659467
4.3388767 7.0805225 11.070827
2.7536511 4.5006948 5.7981253
3.5008674 5.7602701 6.7038441
5.5176477 9.0892963 8.6559792
5.9230614 9.7609653 7.5702477
5.9401007 9.7967386 6.0837302
15.01142 24.767326 11.789487
15.744736 25.987444 9.0211878
16.764589 27.692556 6.2374387
17.483036 28.879316 3.1236777
3.4867868 5.7190857 6.0469151
4.0977979 6.7265291 5.818717
6.1532722 10.104513 7.0377135
4.8544059 7.980998 4.4057679
15.561285 25.593853 10.514117
16.396448 26.978052 7.7049551
17.013405 27.993158 4.6610465
19.068312 31.386551 1.5751191
3.358938 5.3384504 30.346773
4.9905257 8.0178947 30.238892
4.691668 7.6025558 16.439199
6.2536359 10.169227 14.369786
4.1828671 6.6658125 30.335833
6.5388012 10.497095 33.685093
3.9607329 6.3857017 15.600953
4.5544696 7.362956 14.231576
2.7853594 4.5170259 5.8312016
3.5377185 5.7753844 6.7353849
5.5635614 9.0932217 8.677948
6.0181851 9.8401117 7.6470089
5.9072723 9.6663284 6.0164847
15.119534 24.750383 11.806344
15.797853 25.870914 9.0000372
16.856035 27.625483 6.2355738
17.622644 28.88188 3.1303837
3.5380056 5.7577786 6.1001229
3.8843791 6.3263974 5.4890833
6.1749754 10.060928 7.0225139
4.8680024 7.9407887 4.3931794
15.571575 25.410536 10.461525
16.531143 26.986973 7.7237124
19.177755 31.319799 1.5751191
3.3780973 5.3275533 30.351669
5.0192761 8.0016899 30.243664
4.7687736 7.6674819 16.614763
3.8623648 6.2246323 10.831671
6.3059797 10.174579 14.408161
4.20611 6.6511712 30.335833
6.5763202 10.475668 33.689781
3.8676064 6.187242 15.150831
4.6215353 7.4134092 14.359553
2.8118467 4.5245523 5.8532529
3.9670084 6.4332457 6.1765985
7.4962268 12.161212 9.4508944
5.8550229 9.506094 5.9306893
15.295767 24.843517 11.875647
16.114351 26.183294 9.1269398
16.911192 27.499523 6.2206516
17.762486 28.88382 3.13709
3.5580821 5.7453938 6.1001229
3.838376 6.2028117 5.3949022
5.0101972 8.1090755 4.493886
15.635366 25.315851 10.44509
16.640564 26.953918 7.7307463
3.3972218 5.316587 30.356565
5.0471768 7.9841204 30.243664
3.8661647 6.1824818 10.782075
6.3074961 10.098135 14.33141
4.229301 6.6364484 30.335833
6.6146922 10.455564 33.699169
3.885699 6.1681781 15.137326
4.6224108 7.357481 14.282766
5.5480628 8.8444891 13.899754
2.8222246 4.5060897 5.842227
3.8869305 6.2471347 7.3101311
4.0346403 6.4920888 6.245645
7.5518694 12.156281 9.4673424
15.511941 24.998751 11.974917
16.284033 26.253256 9.1706505
16.924271 27.306713 6.1908073
17.897305 28.876667 3.1429019
3.6156774 5.7931199 6.1633077
3.8172255 6.1207814 5.3360386
5.827723 9.3481312 6.5589423
5.0456696 8.103096 4.5001802
15.696189 25.217018 10.427011
16.708872 26.854399 7.7190232
3.4163108 5.305552 30.36146
5.0758181 7.9677129 30.248436
3.9856787 6.3097563 13.744306
3.8847218 6.1641874 10.773809
2.845701 4.5207534 6.4722018
4.2531204 6.6227031 30.340673
6.6437273 10.420771 33.661629
3.935209 6.1986852 15.245357
4.6159763 7.2906203 14.18465
5.5434794 8.7690353 13.811975
2.8469846 4.5105457 5.8606029
3.8632436 6.1610155 7.2260218
4.1399202 6.6099143 6.3711834
6.1741524 9.8616095 7.7128043
15.535199 24.842257 11.926218
16.39846 26.232866 9.183341
17.133989 27.43079 6.231843
18.029654 28.864704 3.148267
3.6199734 5.7551799 6.136704
3.8772838 6.1690192 5.3890157
5.8419724 9.2985306 6.5386767
5.1487088 8.2046051 4.5652199
15.942207 25.414093 10.530553
16.740534 26.697075 7.690887
3.4348097 5.2935948 30.36146
5.1035995 7.9499464 30.248436
4.0051074 6.2917647 13.735528
3.8941455 6.1315861 10.740746
5.8181047 9.1715117 13.080385
4.2762122 6.6078167 30.340673
6.6893897 10.412035 33.708553
3.9450908 6.166573 15.200343
4.6624398 7.3074427 14.24864
5.5756741 8.7521725 13.815964
2.8663507 4.5063009 5.8679538
3.551332 5.6199112 6.6127262
4.171278 6.6085887 6.3837366
6.0344992 9.5641632 7.49897
6.0770974 9.6391163 6.0512667
15.466101 24.540789 11.808217
16.510387 26.207937 9.194622
17.247955 27.399914 6.2383714
18.164787 28.856379 3.1540787
4.0718207 6.4286203 5.6244683
7.3825374 11.660046 8.1953764
5.1894464 8.2057619 4.5757098
16.12923 25.513954 10.594649
16.766115 26.531649 7.6604071
19.036865 30.136642 1.5315886
2.6332889 3.9865515 30.371922
3.4532669 5.2815728 30.36146
5.1321292 7.9333363 30.253206
4.0167003 6.2616191 13.700416
3.9337282 6.1463976 10.790341
5.8414516 9.1376438 13.061197
4.2999382 6.5939021 30.345512
6.7144399 10.371239 33.652245
3.9937227 6.1948471 15.303873
5.0461841 7.8483219 15.332186
5.5931673 8.7123699 13.784042
2.8655977 4.4705806 5.834877
3.5306993 5.5443106 6.5391302
3.5822303 5.6317163 5.464169
6.1107073 9.6178446 6.0512667
15.539242 24.467085 11.798852
16.545204 26.061047 9.1636009
17.364546 27.372725 6.2458324
18.300085 28.847466 3.1598911
3.4510236 5.4025235 5.7908516
4.1747017 6.540431 5.7333655
7.4046445 11.605132 8.1751108
5.205862 8.1684608 4.5652199
16.256252 25.517241 10.619303
16.936951 26.595957 7.6955762
19.158043 30.095295 1.5327977
2.6493411 3.9805691 30.396618
3.4716821 5.2694864 30.36146
5.1606064 7.9166245 30.25798
4.0333323 6.2395144 13.682858
2.903301 4.5068741 6.4952273
4.3229289 6.5788522 30.345512
4.0378556 6.2155533 15.389395
5.114675 7.894134 15.455898
5.7021079 8.8142338 13.975565
2.8940618 4.4804854 5.8606029
3.4999526 5.4539165 6.4480124
3.5892642 5.5995164 5.4453382
8.016386 12.510866 9.8264751
6.1537967 9.6113787 6.0605421
15.674536 24.490789 11.836313
16.58954 25.930399 9.1382208
17.486446 27.353331 6.2551584
18.435539 28.837955 3.1657031
3.4536932 5.3653274 5.7642474
4.2346792 6.5836096 5.7833991
7.4894056 11.648108 8.2232409
5.2122712 8.1158705 4.5463371
16.357979 25.480206 10.62752
17.105816 26.655304 7.7295737
19.26298 30.028236 1.5327977
2.6606231 3.9674253 30.366982
3.4900546 5.2573361 30.36146
5.1890287 7.8998098 30.262751
4.0289431 6.1852617 13.595078
5.5989332 8.6151409 15.163001
2.9172697 4.4940233 6.4913898
4.346561 6.5647707 30.350351
4.0583348 6.1995993 15.384892
5.145052 7.8806005 15.464431
5.7904353 8.8826246 14.115215
3.4937935 5.4027362 6.4024534
3.6087885 5.5869541 5.4453382
7.9035029 12.240424 9.6373129
6.2137275 9.630784 6.0860491
15.787568 24.478781 11.856916
16.586378 25.727188 9.0874586
17.589802 27.304516 6.2579565
18.573849 28.832037 3.171962
3.5313261 5.4440808 5.8606873
5.5899105 8.624238 7.5669546
7.4714179 11.531449 8.1599121
5.2356372 8.0900059 4.542141
16.377567 25.315903 10.583145
17.227791 26.640327 7.7424688
2.6740208 3.9574702 30.362043
3.5083849 5.2451215 30.36146
5.2165723 7.8816485 30.262751
4.0478811 6.1671562 13.586299
5.6012216 8.5531702 15.088608
4.3694496 6.5495582 30.350351
4.0895405 6.1999331 15.420903
5.1796956 7.8734865 15.48576
5.852838 8.9102097 14.191025
3.1279337 4.7691665 6.2611957
3.6388855 5.5906339 5.461031
7.7842712 11.963917 9.4426689
6.2666235 9.6387472 6.1045995
15.908287 24.477943 11.883139
16.845951 25.930611 9.1791115
17.738499 27.325356 6.2766089
18.715052 28.829685 3.1786683
3.5503082 5.4317212 5.8606873
5.589036 8.5572948 7.5257502
7.4904156 11.472813 8.1371126
5.2638445 8.071681 4.542141
16.434893 25.211107 10.563422
17.365789 26.64926 7.7623982
2.6895678 3.9506812 30.3818
3.5266726 5.2328429 30.36146
5.2457089 7.8658748 30.272295
5.6325936 8.5359154 15.092742
4.3929868 6.5353093 30.35519
4.1147723 6.1910586 15.434406
5.2129116 7.8640537 15.502824
5.903863 8.919879 14.238907
3.1445622 4.7582192 6.2611957
3.2750025 4.9876971 5.9433579
3.6797247 5.6104441 5.492415
7.9933491 12.191944 9.6427965
5.5428391 8.4607191 5.3811336
16.006332 24.441654 11.892504
17.038832 26.028177 9.2341022
17.874107 27.32493 6.2905979
18.853737 28.822525 3.1849275
3.6082678 5.4785409 5.9238715
5.6477594 8.5816259 7.5640111
10.101045 15.354056 10.885612
5.2919879 8.0532579 4.542141
16.489094 25.10228 10.542057
17.498726 26.649424 7.779983
2.7037814 3.9419093 30.38674
3.5443449 5.2196584 30.356565
5.2739673 7.8487549 30.277069
3.9115362 5.8696933 12.993773
6.0000362 9.0343056 13.061197
4.4164767 6.5209756 30.360029
4.1387806 6.1802754 15.443409
5.2461247 7.8544841 15.519888
5.9332905 8.8967075 14.234916
3.2212815 4.8375101 6.3788013
3.2825534 4.9613638 5.9258347
3.725039 5.6365328 5.530077
6.1389732 9.2926445 7.3865695
5.7382898 8.6927099 5.5388122
16.119638 24.428196 11.913107
17.227312 26.116701 9.286273
17.996418 27.303389 6.2999249
18.992601 28.814753 3.1911864
3.6418219 5.48769 5.9471502
4.3150187 6.506999 5.768683
10.128379 15.279181 10.857747
5.3100443 8.0195999 4.5337491
16.782515 25.35565 10.671895
17.637236 26.657091 7.7999125
18.810501 28.43037 4.8468394
2.7184081 3.9337256 30.396618
3.5631185 5.2080946 30.36146
5.3021688 7.8315339 30.281839
3.9320016 5.8560038 12.993773
5.0436215 7.5285077 13.3817
6.0333176 9.0159693 13.065035
4.4399214 6.5065579 30.36487
4.1700702 6.1802278 15.47942
5.2764225 7.8404512 15.52842
3.2381482 4.8262362 6.3788013
3.7446914 5.6234951 5.530077
6.1505208 9.2398329 7.361897
16.199677 24.364058 11.909361
17.413965 26.200232 9.3370342
18.126944 27.293598 6.3120484
19.131639 28.806355 3.1974456
3.5405791 5.2949243 5.7542715
4.3646531 6.532227 5.8040013
6.592556 9.8702402 7.0605121
5.4186082 8.1218281 4.6008868
16.952143 25.418701 10.722843
17.773321 26.660074 7.8186698
18.937098 28.405743 4.8537459
19.878309 29.828833 1.5396498
2.7325671 3.9248505 30.401556
3.5812762 5.1956253 30.36146
5.3311558 7.8154445 30.291384
3.9497347 5.8382754 12.984995
5.0494041 7.4805369 13.327972
6.0504169 8.9735937 13.034334
4.4626064 6.4910202 30.36487
4.1916175 6.1656337 15.47942
4.3025303 6.3549218 10.236912
7.2061567 10.65956 14.026819
3.5438037 5.2758093 6.3253527
3.7426119 5.5780678 5.498692
9.4505234 14.090467 11.208174
5.160089 7.699368 4.9382429
16.307848 24.342024 11.926218
17.550694 26.207048 9.3610058
18.235767 27.25057 6.3167119
19.265312 28.789064 3.2028105
3.4672437 5.1462855 5.6079493
4.3942008 6.5270109 5.8128309
7.9410958 11.799848 8.4436274
5.4469256 8.1028643 4.6008868
17.090811 25.433842 10.75407
17.909636 26.662426 7.8374267
18.975388 28.249025 4.838551
19.901545 29.638979 1.5338054
2.7471433 3.9165604 30.411434
3.5999718 5.183929 30.366356
5.3600955 7.7992477 30.300928
3.9795327 5.8383055 13.015718
5.07865 7.4675188 13.336238
6.0871081 8.9603729 13.045847
4.4859529 6.4764366 30.369709
4.2180347 6.1581483 15.497423
3.6376848 5.3247914 10.61833
4.3144984 6.3249288 10.212971
7.247138 10.639946 14.034169
3.5582006 5.2575006 6.3183441
3.7359014 5.5262752 5.461031
9.3427868 13.825269 11.024495
15.965786 23.643585 15.020384
16.550934 24.519342 12.040474
17.684996 26.209246 9.3835659
18.360985 27.231552 6.3269706
19.407448 28.783577 3.2095168
3.5418077 5.2175603 5.6977382
4.4260335 6.5250125 5.8246036
7.9943328 11.789896 8.4562931
17.187428 25.385759 10.759001
18.048912 26.668182 7.8573565
19.084984 28.199024 4.8413138
19.968487 29.515532 1.5311854
2.761246 3.9075816 30.416376
3.6186285 5.1721654 30.37125
5.3889866 7.7829442 30.310472
4.0053115 5.8322754 13.033276
5.1190014 7.4706383 13.373435
6.1237793 8.9470053 13.05736
4.5092521 6.4617691 30.374548
3.6503351 5.3034678 10.601266
4.3263097 6.29493 10.189032
7.2765613 10.603402 14.019468
3.5725126 5.2391553 6.3113351
3.6960068 5.426343 5.3762927
8.2825708 12.164643 9.7332649
15.965991 23.46685 14.943865
17.846498 26.2505 9.4202271
18.46973 27.187609 6.3316336
19.549782 28.777449 3.2162232
3.8066163 5.5657468 6.0868216
5.3701811 7.8577137 7.0136404
6.4475169 9.4375992 6.8021278
5.1989317 7.6185308 4.3512182
17.321175 25.391926 10.78694
18.191181 26.677301 7.8784585
19.247467 28.226337 4.8571997
20.358414 29.86672 1.5517416
2.7762213 3.8998182 30.431192
3.6372473 5.1603351 30.376144
5.4186835 7.7677588 30.324787
4.0406361 5.8399239 13.081555
6.1531534 8.9229364 13.053522
4.5325031 6.4470177 30.379387
6.5062733 9.3198118 30.963287
3.6643667 5.2842636 10.588469
4.3482566 6.2797899 10.189032
7.3058176 10.566783 14.004767
3.5968378 5.2354717 6.3218489
3.6664732 5.342803 5.3072462
8.2516565 12.028767 9.6482792
5.3531389 7.8093309 5.0425892
17.948866 26.203875 9.4258671
19.678242 28.750126 3.2206938
3.9065273 5.6692562 6.2131901
5.4182072 7.8688822 7.0401292
6.4217615 9.329813 6.7413316
5.1792102 7.5330191 4.3134532
17.436449 25.370224 10.803375
18.330982 26.681746 7.8983874
19.438417 28.293673 4.8799925
20.612442 30.013739 1.5624228
2.7902703 3.8907351 30.436132
3.6552379 5.1476068 30.376144
5.4474816 7.7512393 30.334332
4.0555177 5.817925 13.063999
4.5549798 6.4311571 30.379387
6.5367808 9.2942219 30.953903
4.935493 7.046164 17.851561
3.6738276 5.2586131 10.562872
4.363255 6.2546887 10.173072
7.3678484 10.57738 14.052545
3.6386156 5.2627392 5.2413387
5.2570162 7.6119919 4.928968
18.097445 26.223974 9.4554777
19.769997 28.668962 3.2193527
4.009336 5.7752018 6.3428845
4.503335 6.491591 5.8363762
6.4174414 9.2542038 6.7033339
5.2985106 7.6492062 4.3889832
17.559849 25.359676 10.824741
18.476568 26.693533 7.9206619
19.694893 28.453669 4.9186702
